# .PCD v0.7 - Point Cloud Data file format
VERSION 0.7
FIELDS x y z
SIZE 4 4 4
TYPE F F F
COUNT 1 1 1
WIDTH 1532
HEIGHT 1
VIEWPOINT 0 0 0 1 0 0 0
POINTS 1532
DATA ascii
-2.9570415 1.4243853 4.0288401
-2.9519956 1.4243853 4.0288401
-2.9368579 1.4243853 4.0288401
-2.931812 1.4243853 4.0288401
-2.9267664 1.4243853 4.0288401
-2.9217205 1.4243853 4.0288401
-2.857414 1.395445 3.9469829
-2.8524706 1.395445 3.9469829
-2.8475273 1.395445 3.9469829
-2.8425839 1.395445 3.9469829
-2.8376405 1.395445 3.9469829
-2.8326972 1.395445 3.9469829
-2.827754 1.395445 3.9469829
-2.7665994 1.3676569 3.8683858
0.3188985 0.9380334 2.6532054
0.32222146 0.9380334 2.6532054
0.32554445 0.9380334 2.6532054
0.32886744 0.9380334 2.6532054
0.33219039 0.9380334 2.6532054
0.33551335 0.9380334 2.6532054
0.33883634 0.9380334 2.6532054
0.3421593 0.9380334 2.6532054
0.34548226 0.9380334 2.6532054
0.34880528 0.9380334 2.6532054
0.35212824 0.9380334 2.6532054
0.3554512 0.9380334 2.6532054
0.35877416 0.9380334 2.6532054
0.36209714 0.9380334 2.6532054
0.3654201 0.9380334 2.6532054
-1.0553702 0.40021449 1.1280013
-1.0539575 0.40021449 1.1280013
-1.0525447 0.40021449 1.1280013
-1.0450637 0.39790401 1.1214893
-1.0436591 0.39790401 1.1214893
-1.0422546 0.39790401 1.1214893
-2.18682 0.88118112 2.4836018
-2.1837096 0.88118112 2.4836018
-2.1805992 0.88118112 2.4836018
-2.1619358 0.88118112 2.4836018
-2.1588252 0.88118112 2.4836018
-2.1557145 0.88118112 2.4836018
-2.1804812 0.89259273 2.5157654
-2.1773303 0.89259273 2.5157654
-2.1710286 0.89259273 2.5157654
-2.164727 0.89259273 2.5157654
-2.1615763 0.89259273 2.5157654
-2.1584253 0.89259273 2.5157654
-3.1299675 1.372502 3.8683858
-3.1251225 1.372502 3.8683858
-3.1202776 1.372502 3.8683858
-3.115433 1.372502 3.8683858
-3.0498555 1.3457046 3.7928576
-3.0451052 1.3457046 3.7928576
-3.0403547 1.3457046 3.7928576
-3.0356045 1.3457046 3.7928576
-3.0912082 1.372502 3.8683858
-3.0863633 1.372502 3.8683858
-3.0815184 1.372502 3.8683858
-3.0669837 1.372502 3.8683858
-3.0023522 1.3457046 3.7928576
-2.997602 1.3457046 3.7928576
-2.9928515 1.3457046 3.7928576
-3.0476041 1.372502 3.8683858
-3.0427589 1.372502 3.8683858
-3.0379143 1.372502 3.8683858
-3.0330694 1.372502 3.8683858
-3.0282245 1.372502 3.8683858
-3.0233793 1.372502 3.8683858
-3.0185347 1.372502 3.8683858
-3.0136898 1.372502 3.8683858
-3.0088446 1.372502 3.8683858
-3.0039997 1.372502 3.8683858
-2.999155 1.372502 3.8683858
-2.9943101 1.372502 3.8683858
-2.989465 1.372502 3.8683858
-2.9846201 1.372502 3.8683858
-2.9797754 1.372502 3.8683858
-2.9168468 1.3457046 3.7928576
-2.9700854 1.372502 3.8683858
-2.9652405 1.372502 3.8683858
-2.9603958 1.372502 3.8683858
-2.9555507 1.372502 3.8683858
-2.9507058 1.372502 3.8683858
-2.9458609 1.372502 3.8683858
-2.9570415 1.4294312 4.0288401
-2.9519956 1.4294312 4.0288401
-2.9469497 1.4294312 4.0288401
-2.9419038 1.4294312 4.0288401
-2.9368579 1.4294312 4.0288401
-2.931812 1.4294312 4.0288401
-2.9267664 1.4294312 4.0288401
-2.9217205 1.4294312 4.0288401
-2.857414 1.4003884 3.9469829
-2.8524706 1.4003884 3.9469829
-2.8475273 1.4003884 3.9469829
-2.8425839 1.4003884 3.9469829
-2.8376405 1.4003884 3.9469829
-2.8326972 1.4003884 3.9469829
-2.827754 1.4003884 3.9469829
-2.7665994 1.372502 3.8683858
0.3188985 0.94135636 2.6532054
0.32222146 0.94135636 2.6532054
0.32554445 0.94135636 2.6532054
0.32886744 0.94135636 2.6532054
0.33219039 0.94135636 2.6532054
0.33551335 0.94135636 2.6532054
0.33883634 0.94135636 2.6532054
0.3421593 0.94135636 2.6532054
0.34548226 0.94135636 2.6532054
0.34880528 0.94135636 2.6532054
0.35212824 0.94135636 2.6532054
0.3554512 0.94135636 2.6532054
0.35877416 0.94135636 2.6532054
0.36209714 0.94135636 2.6532054
0.3654201 0.94135636 2.6532054
-1.0615342 0.40397295 1.1345894
-1.0601132 0.40397295 1.1345894
-1.0525447 0.40162727 1.1280013
-1.051132 0.40162727 1.1280013
-1.0497192 0.40162727 1.1280013
-2.1837096 0.88429165 2.4836018
-2.1805992 0.88429165 2.4836018
-2.1774886 0.88429165 2.4836018
-2.1743779 0.88429165 2.4836018
-2.1712673 0.88429165 2.4836018
-2.1588252 0.88429165 2.4836018
-2.1557145 0.88429165 2.4836018
-2.164727 0.89574355 2.5157654
-2.1615763 0.89574355 2.5157654
-2.1584253 0.89574355 2.5157654
-3.0038145 1.299703 3.650317
-3.2182786 1.4053315 3.9469829
-3.2133353 1.4053315 3.9469829
-3.2083919 1.4053315 3.9469829
-3.1396573 1.3773468 3.8683858
-3.1348126 1.3773468 3.8683858
-3.1299675 1.3773468 3.8683858
-3.1251225 1.3773468 3.8683858
-3.1202776 1.3773468 3.8683858
-3.115433 1.3773468 3.8683858
-3.0498555 1.3504549 3.7928576
-3.0451052 1.3504549 3.7928576
-3.0403547 1.3504549 3.7928576
-3.0356045 1.3504549 3.7928576
-3.0912082 1.3773468 3.8683858
-3.0863633 1.3773468 3.8683858
-3.0815184 1.3773468 3.8683858
-3.0766735 1.3773468 3.8683858
-3.0718286 1.3773468 3.8683858
-3.0669837 1.3773468 3.8683858
-3.0621386 1.3773468 3.8683858
-2.997602 1.3504549 3.7928576
-3.052449 1.3773468 3.8683858
-3.0476041 1.3773468 3.8683858
-3.0427589 1.3773468 3.8683858
-3.0379143 1.3773468 3.8683858
-3.0330694 1.3773468 3.8683858
-3.0282245 1.3773468 3.8683858
-3.0233793 1.3773468 3.8683858
-3.0185347 1.3773468 3.8683858
-3.0136898 1.3773468 3.8683858
-3.0088446 1.3773468 3.8683858
-3.0039997 1.3773468 3.8683858
-2.999155 1.3773468 3.8683858
-2.9943101 1.3773468 3.8683858
-2.989465 1.3773468 3.8683858
-2.9846201 1.3773468 3.8683858
-2.9797754 1.3773468 3.8683858
-2.9749305 1.3773468 3.8683858
-2.9700854 1.3773468 3.8683858
-2.9652405 1.3773468 3.8683858
-2.9603958 1.3773468 3.8683858
-2.9555507 1.3773468 3.8683858
-2.9507058 1.3773468 3.8683858
-2.9458609 1.3773468 3.8683858
-2.9410162 1.3773468 3.8683858
-2.9361711 1.3773468 3.8683858
-2.9570415 1.4344771 4.0288401
-2.9519956 1.4344771 4.0288401
-2.9469497 1.4344771 4.0288401
-2.8821309 1.4053315 3.9469829
-2.9368579 1.4344771 4.0288401
-2.931812 1.4344771 4.0288401
-2.8673007 1.4053315 3.9469829
-2.8623574 1.4053315 3.9469829
-2.857414 1.4053315 3.9469829
-2.8524706 1.4053315 3.9469829
-2.8475273 1.4053315 3.9469829
-2.8425839 1.4053315 3.9469829
-2.8376405 1.4053315 3.9469829
-2.8326972 1.4053315 3.9469829
-2.827754 1.4053315 3.9469829
-2.7665994 1.3773468 3.8683858
-0.28984115 0.95776033 2.689944
-0.28647217 0.95776033 2.689944
-0.28310317 0.95776033 2.689944
0.31557554 0.94467932 2.6532054
0.3188985 0.94467932 2.6532054
0.32222146 0.94467932 2.6532054
0.32554445 0.94467932 2.6532054
0.32886744 0.94467932 2.6532054
0.33219039 0.94467932 2.6532054
0.33551335 0.94467932 2.6532054
0.33883634 0.94467932 2.6532054
0.3421593 0.94467932 2.6532054
0.34548226 0.94467932 2.6532054
0.34880528 0.94467932 2.6532054
0.35212824 0.94467932 2.6532054
0.3554512 0.94467932 2.6532054
0.35877416 0.94467932 2.6532054
0.36209714 0.94467932 2.6532054
-1.0615342 0.40539396 1.1345894
-1.0601132 0.40539396 1.1345894
-1.0586921 0.40539396 1.1345894
-1.051132 0.40304002 1.1280013
-1.0497192 0.40304002 1.1280013
-2.1837096 0.88740218 2.4836018
-2.1530726 0.87620014 2.4522502
-2.1500013 0.87620014 2.4522502
-2.14693 0.87620014 2.4522502
-2.1712673 0.88740218 2.4836018
-2.1681566 0.88740218 2.4836018
-2.1619358 0.88740218 2.4836018
-2.1588252 0.88740218 2.4836018
-2.164727 0.89889443 2.5157654
-2.1615763 0.89889443 2.5157654
-2.1584253 0.89889443 2.5157654
-3.0312452 1.3042748 3.650317
-3.0266733 1.3042748 3.650317
-3.0221016 1.3042748 3.650317
-3.0175297 1.3042748 3.650317
-3.012958 1.3042748 3.650317
-3.0083861 1.3042748 3.650317
-3.0038145 1.3042748 3.650317
-3.2133353 1.4102749 3.9469829
-3.1445022 1.3821918 3.8683858
-3.1396573 1.3821918 3.8683858
-3.1348126 1.3821918 3.8683858
-3.1299675 1.3821918 3.8683858
-3.1251225 1.3821918 3.8683858
-3.1202776 1.3821918 3.8683858
-3.0546057 1.3552053 3.7928576
-3.0498555 1.3552053 3.7928576
-3.0451052 1.3552053 3.7928576
-3.0403547 1.3552053 3.7928576
-3.0356045 1.3552053 3.7928576
-3.0308542 1.3552053 3.7928576
-3.0863633 1.3821918 3.8683858
-3.0815184 1.3821918 3.8683858
-3.0766735 1.3821918 3.8683858
-3.0718286 1.3821918 3.8683858
-3.0669837 1.3821918 3.8683858
-3.0621386 1.3821918 3.8683858
-3.0572939 1.3821918 3.8683858
-3.052449 1.3821918 3.8683858
-3.0476041 1.3821918 3.8683858
-3.0427589 1.3821918 3.8683858
-3.0379143 1.3821918 3.8683858
-3.0330694 1.3821918 3.8683858
-3.0282245 1.3821918 3.8683858
-3.069978 1.4102749 3.9469829
-3.0039997 1.3821918 3.8683858
-2.999155 1.3821918 3.8683858
-2.9943101 1.3821918 3.8683858
-3.0502045 1.4102749 3.9469829
-2.9846201 1.3821918 3.8683858
-2.9797754 1.3821918 3.8683858
-2.9749305 1.3821918 3.8683858
-2.9700854 1.3821918 3.8683858
-2.9652405 1.3821918 3.8683858
-2.9603958 1.3821918 3.8683858
-2.9555507 1.3821918 3.8683858
-2.9507058 1.3821918 3.8683858
-2.9458609 1.3821918 3.8683858
-2.9410162 1.3821918 3.8683858
-2.9361711 1.3821918 3.8683858
-2.9760544 1.4102749 3.9469829
-2.9711111 1.4102749 3.9469829
-2.8821309 1.4102749 3.9469829
-2.8771875 1.4102749 3.9469829
-2.8722441 1.4102749 3.9469829
-2.8673007 1.4102749 3.9469829
-2.8623574 1.4102749 3.9469829
-2.857414 1.4102749 3.9469829
-2.8524706 1.4102749 3.9469829
-2.8475273 1.4102749 3.9469829
-2.8425839 1.4102749 3.9469829
-2.8376405 1.4102749 3.9469829
-2.8326972 1.4102749 3.9469829
-2.7714441 1.3821918 3.8683858
-0.3033171 0.96112925 2.689944
-0.29994813 0.96112925 2.689944
-0.29657912 0.96112925 2.689944
-0.29321015 0.96112925 2.689944
-0.28984115 0.96112925 2.689944
-0.28647217 0.96112925 2.689944
-0.28310317 0.96112925 2.689944
0.3188985 0.94800234 2.6532054
0.32222146 0.94800234 2.6532054
0.32554445 0.94800234 2.6532054
0.32886744 0.94800234 2.6532054
0.33219039 0.94800234 2.6532054
0.33551335 0.94800234 2.6532054
0.33883634 0.94800234 2.6532054
0.3421593 0.94800234 2.6532054
0.34548226 0.94800234 2.6532054
0.34880528 0.94800234 2.6532054
0.35212824 0.94800234 2.6532054
0.3554512 0.94800234 2.6532054
0.35877416 0.94800234 2.6532054
0.36209714 0.94800234 2.6532054
-1.0615342 0.40681496 1.1345894
-1.0601132 0.40681496 1.1345894
-1.0586921 0.40681496 1.1345894
-1.0572711 0.40681496 1.1345894
-2.1530726 0.87927145 2.4522502
-2.1500013 0.87927145 2.4522502
-2.14693 0.87927145 2.4522502
-2.1438587 0.87927145 2.4522502
-2.1407874 0.87927145 2.4522502
-2.1588252 0.89051276 2.4836018
-2.146383 0.89051276 2.4836018
-2.1432724 0.89051276 2.4836018
-2.1401618 0.89051276 2.4836018
-2.164727 0.90204525 2.5157654
-2.1615763 0.90204525 2.5157654
-3.0312452 1.3088466 3.650317
-3.0266733 1.3088466 3.650317
-3.0221016 1.3088466 3.650317
-3.0175297 1.3088466 3.650317
-3.012958 1.3088466 3.650317
-3.0083861 1.3088466 3.650317
-3.0038145 1.3088466 3.650317
-2.9992428 1.3088466 3.650317
-2.9946709 1.3088466 3.650317
-3.1396573 1.3870366 3.8683858
-3.1348126 1.3870366 3.8683858
-3.1299675 1.3870366 3.8683858
-3.1251225 1.3870366 3.8683858
-3.1202776 1.3870366 3.8683858
-3.0546057 1.3599555 3.7928576
-3.0498555 1.3599555 3.7928576
-3.0451052 1.3599555 3.7928576
-3.0403547 1.3599555 3.7928576
-3.0356045 1.3599555 3.7928576
-3.0308542 1.3599555 3.7928576
-3.0261037 1.3599555 3.7928576
-3.0815184 1.3870366 3.8683858
-3.0766735 1.3870366 3.8683858
-3.0718286 1.3870366 3.8683858
-3.0669837 1.3870366 3.8683858
-3.0621386 1.3870366 3.8683858
-3.0572939 1.3870366 3.8683858
-3.052449 1.3870366 3.8683858
-3.0476041 1.3870366 3.8683858
-3.0427589 1.3870366 3.8683858
-3.0379143 1.3870366 3.8683858
-3.1134634 1.4445688 4.0288401
-3.0452611 1.4152182 3.9469829
-3.0403178 1.4152182 3.9469829
-2.9749305 1.3870366 3.8683858
-2.9603958 1.3870366 3.8683858
-2.9555507 1.3870366 3.8683858
-2.9507058 1.3870366 3.8683858
-2.9458609 1.3870366 3.8683858
-2.9410162 1.3870366 3.8683858
-2.9361711 1.3870366 3.8683858
-2.9760544 1.4152182 3.9469829
-2.9711111 1.4152182 3.9469829
-1.773526 0.85761923 2.3918633
-2.8247383 1.3870366 3.8683858
-2.8198934 1.3870366 3.8683858
-2.7600863 1.3599555 3.7928576
-2.8102033 1.3870366 3.8683858
-2.8053586 1.3870366 3.8683858
-2.8005137 1.3870366 3.8683858
-2.7956686 1.3870366 3.8683858
-2.8475273 1.4152182 3.9469829
-2.785979 1.3870366 3.8683858
-2.7811341 1.3870366 3.8683858
-2.776289 1.3870366 3.8683858
-0.3066861 0.96449822 2.689944
-0.3033171 0.96449822 2.689944
-0.29994813 0.96449822 2.689944
-0.29657912 0.96449822 2.689944
-0.29321015 0.96449822 2.689944
-0.28984115 0.96449822 2.689944
-0.28647217 0.96449822 2.689944
-0.28310317 0.96449822 2.689944
0.32554445 0.95132524 2.6532054
0.32886744 0.95132524 2.6532054
0.33219039 0.95132524 2.6532054
0.33551335 0.95132524 2.6532054
0.33883634 0.95132524 2.6532054
0.3421593 0.95132524 2.6532054
0.34548226 0.95132524 2.6532054
0.34880528 0.95132524 2.6532054
0.35212824 0.95132524 2.6532054
0.3554512 0.95132524 2.6532054
0.35877416 0.95132524 2.6532054
-1.0615342 0.40823597 1.1345894
-1.0601132 0.40823597 1.1345894
-1.0586921 0.40823597 1.1345894
-1.0572711 0.40823597 1.1345894
-2.1060441 0.8606149 2.3918633
-2.1030483 0.8606149 2.3918633
-2.1530726 0.8823427 2.4522502
-2.1500013 0.8823427 2.4522502
-2.14693 0.8823427 2.4522502
-2.1438587 0.8823427 2.4522502
-2.1407874 0.8823427 2.4522502
-2.1377161 0.8823427 2.4522502
-2.1346447 0.8823427 2.4522502
-2.1315734 0.8823427 2.4522502
-2.1557145 0.89362329 2.4836018
-2.1526041 0.89362329 2.4836018
-2.1494935 0.89362329 2.4836018
-2.146383 0.89362329 2.4836018
-2.1432724 0.89362329 2.4836018
-2.1401618 0.89362329 2.4836018
-2.164727 0.90519607 2.5157654
-3.0403888 1.3134184 3.650317
-3.0358171 1.3134184 3.650317
-3.0312452 1.3134184 3.650317
-3.0266733 1.3134184 3.650317
-3.0221016 1.3134184 3.650317
-3.0175297 1.3134184 3.650317
-3.012958 1.3134184 3.650317
-3.0083861 1.3134184 3.650317
-3.0038145 1.3134184 3.650317
-2.9992428 1.3134184 3.650317
-2.9946709 1.3134184 3.650317
-3.1348126 1.3918816 3.8683858
-3.1299675 1.3918816 3.8683858
-3.1251225 1.3918816 3.8683858
-3.1202776 1.3918816 3.8683858
-3.0546057 1.3647059 3.7928576
-3.0498555 1.3647059 3.7928576
-3.0451052 1.3647059 3.7928576
-3.0403547 1.3647059 3.7928576
-3.0356045 1.3647059 3.7928576
-3.0308542 1.3647059 3.7928576
-3.0261037 1.3647059 3.7928576
-3.0815184 1.3918816 3.8683858
-3.0766735 1.3918816 3.8683858
-3.0718286 1.3918816 3.8683858
-3.0669837 1.3918816 3.8683858
-3.0621386 1.3918816 3.8683858
-3.0572939 1.3918816 3.8683858
-3.052449 1.3918816 3.8683858
-3.0476041 1.3918816 3.8683858
-3.1742487 1.4803152 4.1141644
-3.1033716 1.4496146 4.0288401
-2.9652405 1.3918816 3.8683858
-2.9603958 1.3918816 3.8683858
-2.9555507 1.3918816 3.8683858
-2.9507058 1.3918816 3.8683858
-2.9458609 1.3918816 3.8683858
-2.9760544 1.4201616 3.9469829
-2.9711111 1.4201616 3.9469829
-1.7825129 0.8606149 2.3918633
-1.7795173 0.8606149 2.3918633
-1.7765216 0.8606149 2.3918633
-1.773526 0.8606149 2.3918633
-1.7705302 0.8606149 2.3918633
-1.7675346 0.8606149 2.3918633
-1.764539 0.8606149 2.3918633
-1.7615434 0.8606149 2.3918633
-1.7585478 0.8606149 2.3918633
-1.7555521 0.8606149 2.3918633
-1.7525564 0.8606149 2.3918633
-1.7495607 0.8606149 2.3918633
-2.8247383 1.3918816 3.8683858
-2.8198934 1.3918816 3.8683858
-2.8150485 1.3918816 3.8683858
-2.8102033 1.3918816 3.8683858
-2.8053586 1.3918816 3.8683858
-2.8005137 1.3918816 3.8683858
-2.7956686 1.3918816 3.8683858
-2.8475273 1.4201616 3.9469829
-2.785979 1.3918816 3.8683858
-2.7811341 1.3918816 3.8683858
-0.323531 0.96786726 2.689944
-0.31679302 0.96786726 2.689944
-0.31342405 0.96786726 2.689944
-0.31005505 0.96786726 2.689944
-0.3066861 0.96786726 2.689944
-0.3033171 0.96786726 2.689944
-0.29994813 0.96786726 2.689944
-0.29657912 0.96786726 2.689944
-0.29321015 0.96786726 2.689944
-0.28984115 0.96786726 2.689944
-0.28647217 0.96786726 2.689944
0.33219039 0.95464826 2.6532054
0.33551335 0.95464826 2.6532054
0.33883634 0.95464826 2.6532054
0.3421593 0.95464826 2.6532054
0.34548226 0.95464826 2.6532054
0.34880528 0.95464826 2.6532054
0.35212824 0.95464826 2.6532054
0.3554512 0.95464826 2.6532054
0.35877416 0.95464826 2.6532054
0.36209714 0.95464826 2.6532054
-1.0615342 0.40965694 1.1345894
-1.0601132 0.40965694 1.1345894
-1.0586921 0.40965694 1.1345894
-1.0634824 0.41206363 1.1412549
-1.045481 0.40727827 1.1280013
-1.7681072 0.70693523 1.9579338
-2.1120355 0.86361051 2.3918633
-2.1090398 0.86361051 2.3918633
-2.1060441 0.86361051 2.3918633
-2.1030483 0.86361051 2.3918633
-2.1262321 0.87437636 2.4216802
-2.1500013 0.885414 2.4522502
-2.14693 0.885414 2.4522502
-2.1438587 0.885414 2.4522502
-2.1407874 0.885414 2.4522502
-2.1377161 0.885414 2.4522502
-2.1346447 0.885414 2.4522502
-2.1315734 0.885414 2.4522502
-2.1285021 0.885414 2.4522502
-2.1526041 0.89673382 2.4836018
-2.1494935 0.89673382 2.4836018
-2.146383 0.89673382 2.4836018
-2.1432724 0.89673382 2.4836018
-2.1401618 0.89673382 2.4836018
-2.1370513 0.89673382 2.4836018
-3.1032732 1.3432304 3.7202222
-3.0403888 1.3179901 3.650317
-3.0358171 1.3179901 3.650317
-3.0312452 1.3179901 3.650317
-3.0266733 1.3179901 3.650317
-3.0221016 1.3179901 3.650317
-3.0175297 1.3179901 3.650317
-3.012958 1.3179901 3.650317
-3.0083861 1.3179901 3.650317
-3.0038145 1.3179901 3.650317
-2.9992428 1.3179901 3.650317
-2.9946709 1.3179901 3.650317
-3.1299675 1.3967265 3.8683858
-3.1251225 1.3967265 3.8683858
-3.0593562 1.3694562 3.7928576
-3.0546057 1.3694562 3.7928576
-3.0498555 1.3694562 3.7928576
-3.0451052 1.3694562 3.7928576
-3.0403547 1.3694562 3.7928576
-3.0356045 1.3694562 3.7928576
-3.0308542 1.3694562 3.7928576
-3.0261037 1.3694562 3.7928576
-3.0815184 1.3967265 3.8683858
-3.0766735 1.3967265 3.8683858
-3.0718286 1.3967265 3.8683858
-3.0669837 1.3967265 3.8683858
-3.0621386 1.3967265 3.8683858
-3.0572939 1.3967265 3.8683858
-3.052449 1.3967265 3.8683858
-3.1033716 1.4546605 4.0288401
-3.0983257 1.4546605 4.0288401
-3.0304315 1.425105 3.9469829
-2.9603958 1.3967265 3.8683858
-2.9555507 1.3967265 3.8683858
-2.9507058 1.3967265 3.8683858
-2.9410162 1.3967265 3.8683858
-2.9760544 1.425105 3.9469829
-1.7726696 0.85310662 2.3627715
-1.7697103 0.85310662 2.3627715
-1.7667511 0.85310662 2.3627715
-1.7855086 0.86361051 2.3918633
-1.7825129 0.86361051 2.3918633
-1.7795173 0.86361051 2.3918633
-1.7765216 0.86361051 2.3918633
-1.773526 0.86361051 2.3918633
-1.7705302 0.86361051 2.3918633
-1.7675346 0.86361051 2.3918633
-1.764539 0.86361051 2.3918633
-1.7615434 0.86361051 2.3918633
-1.7585478 0.86361051 2.3918633
-1.7555521 0.86361051 2.3918633
-1.7525564 0.86361051 2.3918633
-1.7495607 0.86361051 2.3918633
-1.7465651 0.86361051 2.3918633
-1.7435695 0.86361051 2.3918633
-2.8150485 1.3967265 3.8683858
-2.8102033 1.3967265 3.8683858
-2.8053586 1.3967265 3.8683858
-2.8005137 1.3967265 3.8683858
-2.7956686 1.3967265 3.8683858
-2.7908237 1.3967265 3.8683858
-2.785979 1.3967265 3.8683858
-2.7811341 1.3967265 3.8683858
-1.8934784 0.97123623 2.689944
-1.8867404 0.97123623 2.689944
-0.32690001 0.97123623 2.689944
-0.323531 0.97123623 2.689944
-0.32016203 0.97123623 2.689944
-0.31679302 0.97123623 2.689944
-0.31342405 0.97123623 2.689944
-0.31005505 0.97123623 2.689944
-0.3066861 0.97123623 2.689944
-0.3033171 0.97123623 2.689944
-0.29994813 0.97123623 2.689944
-0.29657912 0.97123623 2.689944
-0.29321015 0.97123623 2.689944
-0.28984115 0.97123623 2.689944
-0.28647217 0.97123623 2.689944
-0.28310317 0.97123623 2.689944
0.33219039 0.95797127 2.6532054
0.33551335 0.95797127 2.6532054
0.33883634 0.95797127 2.6532054
0.3421593 0.95797127 2.6532054
0.34548226 0.95797127 2.6532054
0.34880528 0.95797127 2.6532054
0.35212824 0.95797127 2.6532054
0.3554512 0.95797127 2.6532054
0.35877416 0.95797127 2.6532054
-1.066341 0.41349298 1.1412549
-1.0649117 0.41349298 1.1412549
-1.0634824 0.41349298 1.1412549
-1.062053 0.41349298 1.1412549
-1.0606236 0.41349298 1.1412549
-1.0530082 0.41107798 1.1345894
-1.0515871 0.41107798 1.1345894
-1.0501661 0.41107798 1.1345894
-1.0487452 0.41107798 1.1345894
-1.7209752 0.68856752 1.9004704
-1.718595 0.68856752 1.9004704
-1.7681072 0.70938736 1.9579338
-2.2434981 0.91149771 2.5157654
-2.2403471 0.91149771 2.5157654
-2.1383641 0.87740934 2.4216802
-2.1353312 0.87740934 2.4216802
-2.132298 0.87740934 2.4216802
-2.1292651 0.87740934 2.4216802
-2.1262321 0.87740934 2.4216802
-2.123199 0.87740934 2.4216802
-2.1201661 0.87740934 2.4216802
-2.1438587 0.88848531 2.4522502
-2.1407874 0.88848531 2.4522502
-2.1377161 0.88848531 2.4522502
-2.1346447 0.88848531 2.4522502
-2.1315734 0.88848531 2.4522502
-2.1285021 0.88848531 2.4522502
-2.1254308 0.88848531 2.4522502
-2.1223595 0.88848531 2.4522502
-2.1192884 0.88848531 2.4522502
-2.1162171 0.88848531 2.4522502
-2.1131458 0.88848531 2.4522502
-3.1828642 1.3742065 3.7928576
-3.1781139 1.3742065 3.7928576
-3.1733637 1.3742065 3.7928576
-3.1032732 1.3478897 3.7202222
-3.0986137 1.3478897 3.7202222
-3.0358171 1.3225619 3.650317
-3.0312452 1.3225619 3.650317
-3.0266733 1.3225619 3.650317
-3.0221016 1.3225619 3.650317
-3.0175297 1.3225619 3.650317
-3.012958 1.3225619 3.650317
-3.0083861 1.3225619 3.650317
-3.0038145 1.3225619 3.650317
-2.9992428 1.3225619 3.650317
-2.9946709 1.3225619 3.650317
-3.0498555 1.3742065 3.7928576
-3.0451052 1.3742065 3.7928576
-3.0403547 1.3742065 3.7928576
-3.0356045 1.3742065 3.7928576
-3.0308542 1.3742065 3.7928576
-3.0261037 1.3742065 3.7928576
-3.0815184 1.4015714 3.8683858
-3.0766735 1.4015714 3.8683858
-3.0718286 1.4015714 3.8683858
-3.0669837 1.4015714 3.8683858
-3.0621386 1.4015714 3.8683858
-2.997602 1.3742065 3.7928576
-3.052449 1.4015714 3.8683858
-3.0983257 1.4597064 4.0288401
-2.9603958 1.4015714 3.8683858
-2.9555507 1.4015714 3.8683858
-2.9507058 1.4015714 3.8683858
-2.9458609 1.4015714 3.8683858
-3.0007713 1.4300483 3.9469829
-2.9760544 1.4300483 3.9469829
-1.7756287 0.85606587 2.3627715
-1.7726696 0.85606587 2.3627715
-1.7697103 0.85606587 2.3627715
-1.7667511 0.85606587 2.3627715
-1.7855086 0.86660618 2.3918633
-1.7825129 0.86660618 2.3918633
-1.7795173 0.86660618 2.3918633
-1.7765216 0.86660618 2.3918633
-1.773526 0.86660618 2.3918633
-1.7705302 0.86660618 2.3918633
-1.7675346 0.86660618 2.3918633
-1.764539 0.86660618 2.3918633
-1.7615434 0.86660618 2.3918633
-1.7585478 0.86660618 2.3918633
-1.7555521 0.86660618 2.3918633
-1.7525564 0.86660618 2.3918633
-1.7495607 0.86660618 2.3918633
-1.7465651 0.86660618 2.3918633
-1.7435695 0.86660618 2.3918633
-1.7405738 0.86660618 2.3918633
-2.8102033 1.4015714 3.8683858
-2.8053586 1.4015714 3.8683858
-2.8005137 1.4015714 3.8683858
-2.7956686 1.4015714 3.8683858
-2.7908237 1.4015714 3.8683858
-2.785979 1.4015714 3.8683858
-1.8968474 0.9746052 2.689944
-1.8934784 0.9746052 2.689944
-1.8867404 0.9746052 2.689944
0.33551335 0.96129417 2.6532054
0.33883634 0.96129417 2.6532054
0.3421593 0.96129417 2.6532054
0.34548226 0.96129417 2.6532054
0.34880528 0.96129417 2.6532054
0.35212824 0.96129417 2.6532054
0.3554512 0.96129417 2.6532054
-1.0726427 0.41737434 1.1479993
-1.0712048 0.41737434 1.1479993
-1.0697671 0.41737434 1.1479993
-1.062053 0.41492233 1.1412549
-1.0606236 0.41492233 1.1412549
-1.0530082 0.41249895 1.1345894
-1.0515871 0.41249895 1.1345894
-1.0501661 0.41249895 1.1345894
-1.7209752 0.69094777 1.9004704
-1.7355741 0.69777405 1.9192462
-1.7681072 0.71183962 1.9579338
-2.2241468 0.90295494 2.4836018
-2.2497995 0.91464853 2.5157654
-2.2466488 0.91464853 2.5157654
-2.2434981 0.91464853 2.5157654
-2.2403471 0.91464853 2.5157654
-2.2371962 0.91464853 2.5157654
-2.2633567 0.92664903 2.5487731
-2.132298 0.88044232 2.4216802
-2.1292651 0.88044232 2.4216802
-2.1262321 0.88044232 2.4216802
-2.123199 0.88044232 2.4216802
-2.1201661 0.88044232 2.4216802
-2.1171331 0.88044232 2.4216802
-2.1407874 0.89155656 2.4522502
-2.1377161 0.89155656 2.4522502
-2.1346447 0.89155656 2.4522502
-2.1315734 0.89155656 2.4522502
-2.1285021 0.89155656 2.4522502
-2.1254308 0.89155656 2.4522502
-2.1223595 0.89155656 2.4522502
-2.1192884 0.89155656 2.4522502
-2.1162171 0.89155656 2.4522502
-2.1131458 0.89155656 2.4522502
-2.1100745 0.89155656 2.4522502
-3.1828642 1.3789569 3.7928576
-3.1781139 1.3789569 3.7928576
-3.1733637 1.3789569 3.7928576
-3.1079323 1.352549 3.7202222
-3.0986137 1.352549 3.7202222
-3.0939543 1.352549 3.7202222
-3.0312452 1.3271337 3.650317
-3.0266733 1.3271337 3.650317
-3.0221016 1.3271337 3.650317
-3.0175297 1.3271337 3.650317
-3.012958 1.3271337 3.650317
-3.0083861 1.3271337 3.650317
-3.0038145 1.3271337 3.650317
-2.9992428 1.3271337 3.650317
-2.9946709 1.3271337 3.650317
-3.102109 1.3789569 3.7928576
-3.1348126 1.4064163 3.8683858
-3.0593562 1.3789569 3.7928576
-3.0546057 1.3789569 3.7928576
-3.0498555 1.3789569 3.7928576
-3.0451052 1.3789569 3.7928576
-3.0403547 1.3789569 3.7928576
-3.0356045 1.3789569 3.7928576
-3.0308542 1.3789569 3.7928576
-3.0261037 1.3789569 3.7928576
-3.0815184 1.4064163 3.8683858
-3.0766735 1.4064163 3.8683858
-3.0718286 1.4064163 3.8683858
-3.0669837 1.4064163 3.8683858
-3.0023522 1.3789569 3.7928576
-3.0156014 1.4349917 3.9469829
-3.010658 1.4349917 3.9469829
-3.0057147 1.4349917 3.9469829
-3.0007713 1.4349917 3.9469829
-2.9958279 1.4349917 3.9469829
-2.9908845 1.4349917 3.9469829
-2.9809978 1.4349917 3.9469829
-2.9760544 1.4349917 3.9469829
-1.8004869 0.86960185 2.3918633
-1.7756287 0.85902506 2.3627715
-1.7726696 0.85902506 2.3627715
-1.7697103 0.85902506 2.3627715
-1.7667511 0.85902506 2.3627715
-1.7855086 0.86960185 2.3918633
-1.7825129 0.86960185 2.3918633
-1.7795173 0.86960185 2.3918633
-1.7765216 0.86960185 2.3918633
-1.773526 0.86960185 2.3918633
-1.7705302 0.86960185 2.3918633
-1.7675346 0.86960185 2.3918633
-1.764539 0.86960185 2.3918633
-1.7615434 0.86960185 2.3918633
-1.7585478 0.86960185 2.3918633
-1.7555521 0.86960185 2.3918633
-1.7525564 0.86960185 2.3918633
-1.7495607 0.86960185 2.3918633
-1.7465651 0.86960185 2.3918633
-1.7435695 0.86960185 2.3918633
-1.7405738 0.86960185 2.3918633
-1.7375782 0.86960185 2.3918633
-2.8005137 1.4064163 3.8683858
-2.7956686 1.4064163 3.8683858
-2.7908237 1.4064163 3.8683858
-2.7315843 1.3789569 3.7928576
-1.8968474 0.97797418 2.689944
-1.8934784 0.97797418 2.689944
0.33551335 0.96461719 2.6532054
0.33883634 0.96461719 2.6532054
0.3421593 0.96461719 2.6532054
0.34548226 0.96461719 2.6532054
0.34880528 0.96461719 2.6532054
0.35212824 0.96461719 2.6532054
0.3554512 0.96461719 2.6532054
-1.0804656 0.42130184 1.1548238
-1.0726427 0.41881213 1.1479993
-1.0712048 0.41881213 1.1479993
-1.0697671 0.41881213 1.1479993
-1.062053 0.41635168 1.1412549
-1.0606236 0.41635168 1.1412549
-1.0530082 0.41391999 1.1345894
-1.7730114 0.71429181 1.9579338
-1.7705593 0.71429181 1.9579338
-1.7681072 0.71429181 1.9579338
-1.7656549 0.71429181 1.9579338
-2.2655537 0.91779941 2.5157654
-2.2334785 0.90606546 2.4836018
-2.2303679 0.90606546 2.4836018
-2.2241468 0.90606546 2.4836018
-2.2210364 0.90606546 2.4836018
-2.2179258 0.90606546 2.4836018
-2.2148151 0.90606546 2.4836018
-2.2117045 0.90606546 2.4836018
-2.2665489 0.92984116 2.5487731
-2.2633567 0.92984116 2.5487731
-2.2308946 0.91779941 2.5157654
-2.1262321 0.88347536 2.4216802
-2.123199 0.88347536 2.4216802
-2.1201661 0.88347536 2.4216802
-2.1171331 0.88347536 2.4216802
-2.1141 0.88347536 2.4216802
-2.1377161 0.89462787 2.4522502
-2.1346447 0.89462787 2.4522502
-2.1315734 0.89462787 2.4522502
-2.1285021 0.89462787 2.4522502
-2.1254308 0.89462787 2.4522502
-2.1223595 0.89462787 2.4522502
-2.1192884 0.89462787 2.4522502
-2.1131458 0.89462787 2.4522502
-2.1100745 0.89462787 2.4522502
-3.1828642 1.3837072 3.7928576
-3.1781139 1.3837072 3.7928576
-3.1733637 1.3837072 3.7928576
-3.1079323 1.3572084 3.7202222
-3.1032732 1.3572084 3.7202222
-3.0986137 1.3572084 3.7202222
-3.0939543 1.3572084 3.7202222
-3.0892951 1.3572084 3.7202222
-3.0266733 1.3317056 3.650317
-3.0221016 1.3317056 3.650317
-3.0175297 1.3317056 3.650317
-3.012958 1.3317056 3.650317
-3.0083861 1.3317056 3.650317
-3.0038145 1.3317056 3.650317
-2.9992428 1.3317056 3.650317
-3.1068592 1.3837072 3.7928576
-3.102109 1.3837072 3.7928576
-3.0973587 1.3837072 3.7928576
-3.0926085 1.3837072 3.7928576
-3.1493471 1.4112612 3.8683858
-3.1445022 1.4112612 3.8683858
-3.1396573 1.4112612 3.8683858
-3.073607 1.3837072 3.7928576
-3.0688567 1.3837072 3.7928576
-3.0641065 1.3837072 3.7928576
-3.0593562 1.3837072 3.7928576
-3.0546057 1.3837072 3.7928576
-3.0498555 1.3837072 3.7928576
-3.0451052 1.3837072 3.7928576
-3.0403547 1.3837072 3.7928576
-3.0356045 1.3837072 3.7928576
-3.0308542 1.3837072 3.7928576
-3.0261037 1.3837072 3.7928576
-3.0213535 1.3837072 3.7928576
-3.0766735 1.4112612 3.8683858
-3.0718286 1.4112612 3.8683858
-3.0669837 1.4112612 3.8683858
-3.0023522 1.3837072 3.7928576
-2.997602 1.3837072 3.7928576
-3.2985051 1.5673126 4.2961359
-3.4455209 1.6398435 4.4949489
-3.4398913 1.6398435 4.4949489
-3.4342618 1.6398435 4.4949489
-3.010658 1.4399351 3.9469829
-3.0057147 1.4399351 3.9469829
-3.0007713 1.4399351 3.9469829
-2.9958279 1.4399351 3.9469829
-2.9908845 1.4399351 3.9469829
-2.9859412 1.4399351 3.9469829
-2.9809978 1.4399351 3.9469829
-2.9760544 1.4399351 3.9469829
-3.0327294 1.4697981 4.0288401
-1.7756287 0.86198431 2.3627715
-1.7944956 0.87259752 2.3918633
-1.7697103 0.86198431 2.3627715
-1.7885042 0.87259752 2.3918633
-1.7855086 0.87259752 2.3918633
-1.7825129 0.87259752 2.3918633
-1.7795173 0.87259752 2.3918633
-1.7765216 0.87259752 2.3918633
-1.773526 0.87259752 2.3918633
-1.7705302 0.87259752 2.3918633
-1.7675346 0.87259752 2.3918633
-1.764539 0.87259752 2.3918633
-1.7615434 0.87259752 2.3918633
-1.7585478 0.87259752 2.3918633
-1.7555521 0.87259752 2.3918633
-1.7525564 0.87259752 2.3918633
-1.7495607 0.87259752 2.3918633
-1.7465651 0.87259752 2.3918633
-1.7435695 0.87259752 2.3918633
-1.7405738 0.87259752 2.3918633
-1.7375782 0.87259752 2.3918633
-1.7345824 0.87259752 2.3918633
-2.8005137 1.4112612 3.8683858
-2.7956686 1.4112612 3.8683858
-2.7908237 1.4112612 3.8683858
-2.7315843 1.3837072 3.7928576
-1.8817921 0.9548983 2.6174564
-1.8535395 0.9422031 2.5826581
-1.8752357 0.9548983 2.6174564
-1.8470702 0.9422031 2.5826581
-1.8438356 0.9422031 2.5826581
-1.840601 0.9422031 2.5826581
-1.8373663 0.9422031 2.5826581
-1.8341317 0.9422031 2.5826581
-1.8968474 0.98134321 2.689944
-1.8934784 0.98134321 2.689944
0.33551335 0.96794015 2.6532054
0.33883634 0.96794015 2.6532054
0.3421593 0.96794015 2.6532054
0.34548226 0.96794015 2.6532054
0.34880528 0.96794015 2.6532054
0.35212824 0.96794015 2.6532054
0.3554512 0.96794015 2.6532054
-1.0804656 0.42274821 1.1548238
-1.0790193 0.42274821 1.1548238
-1.0712048 0.42024991 1.1479993
-1.0697671 0.42024991 1.1479993
-1.062053 0.41778103 1.1412549
-1.0606236 0.41778103 1.1412549
-1.7754637 0.71674395 1.9579338
-1.7730114 0.71674395 1.9579338
-1.7705593 0.71674395 1.9579338
-1.7681072 0.71674395 1.9579338
-1.7656549 0.71674395 1.9579338
-2.2365892 0.90917611 2.4836018
-2.2272573 0.90917611 2.4836018
-2.2241468 0.90917611 2.4836018
-2.2210364 0.90917611 2.4836018
-2.2179258 0.90917611 2.4836018
-2.2403471 0.92095023 2.5157654
-2.2665489 0.93303341 2.5487731
-2.2633567 0.93303341 2.5487731
-2.1262321 0.88650835 2.4216802
-2.123199 0.88650835 2.4216802
-2.1201661 0.88650835 2.4216802
-2.1171331 0.88650835 2.4216802
-2.1141 0.88650835 2.4216802
-2.1285021 0.89769918 2.4522502
-2.1254308 0.89769918 2.4522502
-2.1223595 0.89769918 2.4522502
-2.1192884 0.89769918 2.4522502
-2.1162171 0.89769918 2.4522502
-3.1828642 1.3884575 3.7928576
-3.1781139 1.3884575 3.7928576
-3.1733637 1.3884575 3.7928576
-3.1079323 1.3618677 3.7202222
-3.1032732 1.3618677 3.7202222
-3.0986137 1.3618677 3.7202222
-3.0939543 1.3618677 3.7202222
-3.0892951 1.3618677 3.7202222
-3.0266733 1.3362774 3.650317
-3.0221016 1.3362774 3.650317
-3.0753171 1.3618677 3.7202222
-3.0706577 1.3618677 3.7202222
-3.0659983 1.3618677 3.7202222
-3.0613391 1.3618677 3.7202222
-2.9992428 1.3362774 3.650317
-3.1068592 1.3884575 3.7928576
-3.102109 1.3884575 3.7928576
-3.0973587 1.3884575 3.7928576
-3.0926085 1.3884575 3.7928576
-3.087858 1.3884575 3.7928576
-3.0831077 1.3884575 3.7928576
-3.0783575 1.3884575 3.7928576
-3.073607 1.3884575 3.7928576
-3.0688567 1.3884575 3.7928576
-3.0641065 1.3884575 3.7928576
-3.0593562 1.3884575 3.7928576
-3.0546057 1.3884575 3.7928576
-3.0498555 1.3884575 3.7928576
-3.0451052 1.3884575 3.7928576
-3.0403547 1.3884575 3.7928576
-3.0356045 1.3884575 3.7928576
-3.0308542 1.3884575 3.7928576
-3.0261037 1.3884575 3.7928576
-3.0213535 1.3884575 3.7928576
-3.0166032 1.3884575 3.7928576
-3.0718286 1.4161061 3.8683858
-3.0071025 1.3884575 3.7928576
-3.0023522 1.3884575 3.7928576
-2.997602 1.3884575 3.7928576
-3.4455209 1.6454731 4.4949489
-3.4398913 1.6454731 4.4949489
-3.4342618 1.6454731 4.4949489
-3.428632 1.6454731 4.4949489
-3.0057147 1.4448785 3.9469829
-3.0007713 1.4448785 3.9469829
-2.9958279 1.4448785 3.9469829
-2.9908845 1.4448785 3.9469829
-2.9809978 1.4448785 3.9469829
-2.9760544 1.4448785 3.9469829
-3.0327294 1.474844 4.0288401
-1.7944956 0.87559319 2.3918633
-1.7697103 0.8649435 2.3627715
-1.7885042 0.87559319 2.3918633
-1.7855086 0.87559319 2.3918633
-1.7825129 0.87559319 2.3918633
-1.7795173 0.87559319 2.3918633
-1.7765216 0.87559319 2.3918633
-1.773526 0.87559319 2.3918633
-1.7705302 0.87559319 2.3918633
-1.7675346 0.87559319 2.3918633
-1.764539 0.87559319 2.3918633
-1.7615434 0.87559319 2.3918633
-1.7585478 0.87559319 2.3918633
-1.7555521 0.87559319 2.3918633
-1.7525564 0.87559319 2.3918633
-1.7495607 0.87559319 2.3918633
-1.7465651 0.87559319 2.3918633
-1.7435695 0.87559319 2.3918633
-1.7405738 0.87559319 2.3918633
-1.7375782 0.87559319 2.3918633
-1.7345824 0.87559319 2.3918633
-2.8005137 1.4161061 3.8683858
-2.7410851 1.3884575 3.7928576
-2.7363348 1.3884575 3.7928576
-2.7315843 1.3884575 3.7928576
-1.8817921 0.95817649 2.6174564
-1.8535395 0.94543773 2.5826581
-1.8752357 0.95817649 2.6174564
-1.8719574 0.95817649 2.6174564
-1.8686792 0.95817649 2.6174564
-1.865401 0.95817649 2.6174564
-1.8373663 0.94543773 2.5826581
-1.8341317 0.94543773 2.5826581
-1.8809094 0.97126311 2.6532054
-1.8775866 0.97126311 2.6532054
-1.8709406 0.97126311 2.6532054
-1.8676176 0.97126311 2.6532054
0.33551335 0.97126311 2.6532054
0.33883634 0.97126311 2.6532054
0.3421593 0.97126311 2.6532054
0.34548226 0.97126311 2.6532054
0.34880528 0.97126311 2.6532054
0.35212824 0.97126311 2.6532054
0.3554512 0.97126311 2.6532054
0.35877416 0.97126311 2.6532054
-1.0804656 0.42419451 1.1548238
-1.0790193 0.42419451 1.1548238
-1.0775728 0.42419451 1.1548238
-1.0697671 0.42168772 1.1479993
-1.062053 0.41921034 1.1412549
-1.7803681 0.71919614 1.9579338
-1.7779158 0.71919614 1.9579338
-1.7754637 0.71919614 1.9579338
-1.7730114 0.71919614 1.9579338
-1.7705593 0.71919614 1.9579338
-1.7681072 0.71919614 1.9579338
-2.2083557 0.90077043 2.4522502
-2.2334785 0.91228664 2.4836018
-2.2303679 0.91228664 2.4836018
-2.2272573 0.91228664 2.4836018
-2.2241468 0.91228664 2.4836018
-2.2210364 0.91228664 2.4836018
-2.2179258 0.91228664 2.4836018
-2.2403471 0.92410105 2.5157654
-2.2665489 0.93622559 2.5487731
-2.2633567 0.93622559 2.5487731
-2.1262321 0.88954139 2.4216802
-2.123199 0.88954139 2.4216802
-2.1201661 0.88954139 2.4216802
-2.1171331 0.88954139 2.4216802
-2.1141 0.88954139 2.4216802
-2.1285021 0.90077043 2.4522502
-2.1254308 0.90077043 2.4522502
-2.1223595 0.90077043 2.4522502
-2.1192884 0.90077043 2.4522502
-3.168504 1.366527 3.7202222
-3.1638446 1.366527 3.7202222
-3.1591854 1.366527 3.7202222
-3.2066159 1.3932078 3.7928576
-3.2018654 1.3932078 3.7928576
-3.1828642 1.3932078 3.7928576
-3.1781139 1.3932078 3.7928576
-3.1733637 1.3932078 3.7928576
-3.1079323 1.366527 3.7202222
-3.1638629 1.3932078 3.7928576
-3.1591127 1.3932078 3.7928576
-3.1543622 1.3932078 3.7928576
-3.0892951 1.366527 3.7202222
-3.0846357 1.366527 3.7202222
-3.0799763 1.366527 3.7202222
-3.0753171 1.366527 3.7202222
-3.0706577 1.366527 3.7202222
-3.0659983 1.366527 3.7202222
-3.0613391 1.366527 3.7202222
-3.0566797 1.366527 3.7202222
-3.1116097 1.3932078 3.7928576
-3.1068592 1.3932078 3.7928576
-3.102109 1.3932078 3.7928576
-3.0973587 1.3932078 3.7928576
-3.0926085 1.3932078 3.7928576
-3.087858 1.3932078 3.7928576
-3.0831077 1.3932078 3.7928576
-3.0783575 1.3932078 3.7928576
-3.073607 1.3932078 3.7928576
-3.0688567 1.3932078 3.7928576
-3.0641065 1.3932078 3.7928576
-3.0593562 1.3932078 3.7928576
-3.0546057 1.3932078 3.7928576
-3.0498555 1.3932078 3.7928576
-3.0451052 1.3932078 3.7928576
-3.0403547 1.3932078 3.7928576
-3.0356045 1.3932078 3.7928576
-3.0308542 1.3932078 3.7928576
-3.0261037 1.3932078 3.7928576
-3.0213535 1.3932078 3.7928576
-3.0166032 1.3932078 3.7928576
-3.011853 1.3932078 3.7928576
-3.0071025 1.3932078 3.7928576
-3.0023522 1.3932078 3.7928576
-2.997602 1.3932078 3.7928576
-2.9355366 1.366527 3.7202222
-3.4455209 1.6511028 4.4949489
-3.4398913 1.6511028 4.4949489
-3.4342618 1.6511028 4.4949489
-3.428632 1.6511028 4.4949489
-3.3455904 1.6137626 4.3932939
-3.3400879 1.6137626 4.3932939
-3.3345857 1.6137626 4.3932939
-3.25546 1.5780739 4.2961359
-3.2500794 1.5780739 4.2961359
-3.1692302 1.5439297 4.2031817
-3.1639662 1.5439297 4.2031817
-3.0918052 1.5112315 4.1141644
-1.7726696 0.8679027 2.3627715
-1.7697103 0.8679027 2.3627715
-1.7455206 0.85747343 2.334379
-1.7637919 0.8679027 2.3627715
-1.7825129 0.8785888 2.3918633
-1.7795173 0.8785888 2.3918633
-1.7765216 0.8785888 2.3918633
-1.773526 0.8785888 2.3918633
-1.7705302 0.8785888 2.3918633
-1.7675346 0.8785888 2.3918633
-1.764539 0.8785888 2.3918633
-1.7615434 0.8785888 2.3918633
-1.7585478 0.8785888 2.3918633
-1.7555521 0.8785888 2.3918633
-1.7525564 0.8785888 2.3918633
-1.7495607 0.8785888 2.3918633
-1.7465651 0.8785888 2.3918633
-1.7435695 0.8785888 2.3918633
-1.7405738 0.8785888 2.3918633
-1.7375782 0.8785888 2.3918633
-1.713485 0.8679027 2.3627715
-1.7105259 0.8679027 2.3627715
-2.7410851 1.3932078 3.7928576
-2.7363348 1.3932078 3.7928576
-1.8752357 0.96145469 2.6174564
-1.8719574 0.96145469 2.6174564
-1.8686792 0.96145469 2.6174564
-1.865401 0.96145469 2.6174564
-1.8621228 0.96145469 2.6174564
-1.8588446 0.96145469 2.6174564
-1.8809094 0.97458613 2.6532054
-1.8775866 0.97458613 2.6532054
-1.8742635 0.97458613 2.6532054
-1.8709406 0.97458613 2.6532054
-1.8676176 0.97458613 2.6532054
-1.1863301 0.73399168 1.9982132
-1.1838274 0.73399168 1.9982132
-1.1813248 0.73399168 1.9982132
-1.1788222 0.73399168 1.9982132
-1.1763195 0.73399168 1.9982132
-1.0804656 0.42564088 1.1548238
-1.0790193 0.42564088 1.1548238
-1.0775728 0.42564088 1.1548238
-1.0697671 0.42312551 1.1479993
-1.062053 0.42063972 1.1412549
-1.7828203 0.7216484 1.9579338
-1.7803681 0.7216484 1.9579338
-1.7779158 0.7216484 1.9579338
-1.7754637 0.7216484 1.9579338
-1.7730114 0.7216484 1.9579338
-1.7705593 0.7216484 1.9579338
-2.2144983 0.90384173 2.4522502
-2.211427 0.90384173 2.4522502
-2.2083557 0.90384173 2.4522502
-2.2272573 0.91539717 2.4836018
-2.2179258 0.91539717 2.4836018
-2.2434981 0.92725194 2.5157654
-2.2403471 0.92725194 2.5157654
-2.2665489 0.93941772 2.5487731
-2.2633567 0.93941772 2.5487731
-2.1262321 0.89257437 2.4216802
-2.123199 0.89257437 2.4216802
-2.1171331 0.89257437 2.4216802
-2.1141 0.89257437 2.4216802
-2.1377161 0.90384173 2.4522502
-2.1315734 0.90384173 2.4522502
-2.1285021 0.90384173 2.4522502
-2.1254308 0.90384173 2.4522502
-2.1223595 0.90384173 2.4522502
-2.1192884 0.90384173 2.4522502
-3.1731634 1.3711864 3.7202222
-3.168504 1.3711864 3.7202222
-3.1638446 1.3711864 3.7202222
-3.1591854 1.3711864 3.7202222
-3.2113662 1.3979582 3.7928576
-3.2066159 1.3979582 3.7928576
-3.2018654 1.3979582 3.7928576
-3.1876144 1.3979582 3.7928576
-3.1828642 1.3979582 3.7928576
-3.1781139 1.3979582 3.7928576
-3.1733637 1.3979582 3.7928576
-3.1079323 1.3711864 3.7202222
-3.1638629 1.3979582 3.7928576
-3.1591127 1.3979582 3.7928576
-3.0939543 1.3711864 3.7202222
-3.1496119 1.3979582 3.7928576
-3.0799763 1.3711864 3.7202222
-3.0753171 1.3711864 3.7202222
-3.0706577 1.3711864 3.7202222
-3.0659983 1.3711864 3.7202222
-3.0613391 1.3711864 3.7202222
-3.0566797 1.3711864 3.7202222
-3.1116097 1.3979582 3.7928576
-3.1068592 1.3979582 3.7928576
-3.102109 1.3979582 3.7928576
-3.0973587 1.3979582 3.7928576
-3.0926085 1.3979582 3.7928576
-3.087858 1.3979582 3.7928576
-3.0831077 1.3979582 3.7928576
-3.073607 1.3979582 3.7928576
-3.0688567 1.3979582 3.7928576
-3.0641065 1.3979582 3.7928576
-3.0593562 1.3979582 3.7928576
-3.0498555 1.3979582 3.7928576
-3.0451052 1.3979582 3.7928576
-3.0403547 1.3979582 3.7928576
-3.0356045 1.3979582 3.7928576
-3.0308542 1.3979582 3.7928576
-3.0261037 1.3979582 3.7928576
-3.0213535 1.3979582 3.7928576
-3.0166032 1.3979582 3.7928576
-3.011853 1.3979582 3.7928576
-3.0071025 1.3979582 3.7928576
-3.0023522 1.3979582 3.7928576
-2.997602 1.3979582 3.7928576
-2.9355366 1.3711864 3.7202222
-3.4398913 1.6567324 4.4949489
-3.4342618 1.6567324 4.4949489
-3.428632 1.6567324 4.4949489
-3.3455904 1.6192648 4.3932939
-3.3400879 1.6192648 4.3932939
-3.3345857 1.6192648 4.3932939
-3.25546 1.5834545 4.2961359
-3.2500794 1.5834545 4.2961359
-3.1744943 1.5491939 4.2031817
-3.1692302 1.5491939 4.2031817
-3.1639662 1.5491939 4.2031817
-3.1587017 1.5491939 4.2031817
-1.7484443 0.86039716 2.334379
-1.7455206 0.86039716 2.334379
-1.7425971 0.86039716 2.334379
-1.7608327 0.87086195 2.3627715
-1.7795173 0.88158447 2.3918633
-1.7765216 0.88158447 2.3918633
-1.773526 0.88158447 2.3918633
-1.7705302 0.88158447 2.3918633
-1.7675346 0.88158447 2.3918633
-1.764539 0.88158447 2.3918633
-1.7615434 0.88158447 2.3918633
-1.7585478 0.88158447 2.3918633
-1.7555521 0.88158447 2.3918633
-1.7525564 0.88158447 2.3918633
-1.7495607 0.88158447 2.3918633
-1.7465651 0.88158447 2.3918633
-1.7435695 0.88158447 2.3918633
-1.7405738 0.88158447 2.3918633
-1.7375782 0.88158447 2.3918633
-1.7345824 0.88158447 2.3918633
-1.7315868 0.88158447 2.3918633
-1.8752357 0.96473289 2.6174564
-1.8719574 0.96473289 2.6174564
-1.8686792 0.96473289 2.6174564
-1.8621228 0.96473289 2.6174564
-1.8842324 0.97790903 2.6532054
-1.8809094 0.97790903 2.6532054
-1.8775866 0.97790903 2.6532054
-1.8742635 0.97790903 2.6532054
-1.8709406 0.97790903 2.6532054
-1.8676176 0.97790903 2.6532054
-1.1888326 0.7364943 1.9982132
-1.1863301 0.7364943 1.9982132
-1.1838274 0.7364943 1.9982132
-1.1813248 0.7364943 1.9982132
-1.1788222 0.7364943 1.9982132
-1.1763195 0.7364943 1.9982132
-1.0804656 0.42708722 1.1548238
-1.0790193 0.42708722 1.1548238
-1.0775728 0.42708722 1.1548238
-1.0697671 0.42456332 1.1479993
-1.7877246 0.72410053 1.9579338
-1.7852725 0.72410053 1.9579338
-1.7828203 0.72410053 1.9579338
-1.7803681 0.72410053 1.9579338
-1.7779158 0.72410053 1.9579338
-1.7935404 0.73147291 1.9778684
-2.2144983 0.90691304 2.4522502
-2.211427 0.90691304 2.4522502
-2.2083557 0.90691304 2.4522502
-2.2334785 0.91850775 2.4836018
-2.2303679 0.91850775 2.4836018
-2.2272573 0.91850775 2.4836018
-2.2466488 0.93040276 2.5157654
-2.2434981 0.93040276 2.5157654
-2.2697411 0.94260991 2.5487731
-2.2665489 0.94260991 2.5487731
-2.2633567 0.94260991 2.5487731
-2.2601645 0.94260991 2.5487731
-2.123199 0.89560735 2.4216802
-2.1171331 0.89560735 2.4216802
-2.1141 0.89560735 2.4216802
-2.1315734 0.90691304 2.4522502
-2.1285021 0.90691304 2.4522502
-2.1254308 0.90691304 2.4522502
-2.1223595 0.90691304 2.4522502
-2.1192884 0.90691304 2.4522502
-3.1778226 1.3758457 3.7202222
-3.1731634 1.3758457 3.7202222
-3.168504 1.3758457 3.7202222
-3.1638446 1.3758457 3.7202222
-3.1591854 1.3758457 3.7202222
-3.154526 1.3758457 3.7202222
-3.2113662 1.4027084 3.7928576
-3.2066159 1.4027084 3.7928576
-3.2018654 1.4027084 3.7928576
-3.1971152 1.4027084 3.7928576
-3.1923649 1.4027084 3.7928576
-3.1876144 1.4027084 3.7928576
-3.1828642 1.4027084 3.7928576
-3.1781139 1.4027084 3.7928576
-3.1733637 1.4027084 3.7928576
-3.1079323 1.3758457 3.7202222
-3.0986137 1.3758457 3.7202222
-3.0939543 1.3758457 3.7202222
-3.1496119 1.4027084 3.7928576
-3.0846357 1.3758457 3.7202222
-3.0799763 1.3758457 3.7202222
-3.0753171 1.3758457 3.7202222
-3.0706577 1.3758457 3.7202222
-3.1258607 1.4027084 3.7928576
-3.0613391 1.3758457 3.7202222
-3.0566797 1.3758457 3.7202222
-3.1116097 1.4027084 3.7928576
-3.1068592 1.4027084 3.7928576
-3.102109 1.4027084 3.7928576
-3.0973587 1.4027084 3.7928576
-3.0926085 1.4027084 3.7928576
-3.087858 1.4027084 3.7928576
-3.0831077 1.4027084 3.7928576
-3.0783575 1.4027084 3.7928576
-3.073607 1.4027084 3.7928576
-3.0688567 1.4027084 3.7928576
-3.0641065 1.4027084 3.7928576
-3.0593562 1.4027084 3.7928576
-3.0546057 1.4027084 3.7928576
-3.0498555 1.4027084 3.7928576
-2.9867895 1.3758457 3.7202222
-2.9821301 1.3758457 3.7202222
-2.9774706 1.3758457 3.7202222
-2.9728115 1.3758457 3.7202222
-3.0261037 1.4027084 3.7928576
-3.0213535 1.4027084 3.7928576
-3.0166032 1.4027084 3.7928576
-3.011853 1.4027084 3.7928576
-3.0071025 1.4027084 3.7928576
-3.0023522 1.4027084 3.7928576
-2.997602 1.4027084 3.7928576
-2.9928515 1.4027084 3.7928576
-3.4342618 1.6623621 4.4949489
-3.3510928 1.6247672 4.3932939
-3.3455904 1.6247672 4.3932939
-3.3400879 1.6247672 4.3932939
-3.3345857 1.6247672 4.3932939
-3.25546 1.5888351 4.2961359
-3.2500794 1.5888351 4.2961359
-3.1744943 1.5544581 4.2031817
-3.1692302 1.5544581 4.2031817
-3.1639662 1.5544581 4.2031817
-3.1587017 1.5544581 4.2031817
-3.1481733 1.5544581 4.2031817
-3.1429093 1.5544581 4.2031817
-1.7855086 0.88458014 2.3918633
-1.7825129 0.88458014 2.3918633
-1.7795173 0.88458014 2.3918633
-1.7765216 0.88458014 2.3918633
-1.773526 0.88458014 2.3918633
-1.7705302 0.88458014 2.3918633
-1.7675346 0.88458014 2.3918633
-1.764539 0.88458014 2.3918633
-1.7615434 0.88458014 2.3918633
-1.7585478 0.88458014 2.3918633
-1.7555521 0.88458014 2.3918633
-1.7525564 0.88458014 2.3918633
-1.7495607 0.88458014 2.3918633
-1.7465651 0.88458014 2.3918633
-1.7435695 0.88458014 2.3918633
-1.7405738 0.88458014 2.3918633
-1.7375782 0.88458014 2.3918633
-1.7345824 0.88458014 2.3918633
-1.7315868 0.88458014 2.3918633
-1.7285911 0.88458014 2.3918633
-1.8752357 0.96801108 2.6174564
-1.8719574 0.96801108 2.6174564
-1.8775866 0.98123205 2.6532054
-1.8742635 0.98123205 2.6532054
-1.8709406 0.98123205 2.6532054
-1.8676176 0.98123205 2.6532054
-1.8391755 0.96801108 2.6174564
-1.1940687 0.73147291 1.9778684
-1.1915915 0.73147291 1.9778684
-1.1913353 0.73899692 1.9982132
-1.1888326 0.73899692 1.9982132
-1.1863301 0.73899692 1.9982132
-1.1838274 0.73899692 1.9982132
-1.1813248 0.73899692 1.9982132
-1.1788222 0.73899692 1.9982132
-1.1763195 0.73899692 1.9982132
-1.0804656 0.42853358 1.1548238
-1.0790193 0.42853358 1.1548238
-1.7877246 0.72655272 1.9579338
-1.7852725 0.72655272 1.9579338
-1.8009717 0.73395008 1.9778684
-1.7984947 0.73395008 1.9778684
-1.8308212 0.74920607 2.0189805
-1.8094865 0.74149966 1.9982132
-2.2144983 0.90998429 2.4522502
-2.211427 0.90998429 2.4522502
-2.2334785 0.92161828 2.4836018
-2.2303679 0.92161828 2.4836018
-2.2272573 0.92161828 2.4836018
-2.2241468 0.92161828 2.4836018
-2.2210364 0.92161828 2.4836018
-2.2466488 0.93355358 2.5157654
-2.2434981 0.93355358 2.5157654
-2.2697411 0.94580215 2.5487731
-2.2665489 0.94580215 2.5487731
-2.2633567 0.94580215 2.5487731
-2.2601645 0.94580215 2.5487731
-2.1262321 0.89864039 2.4216802
-2.123199 0.89864039 2.4216802
-2.1201661 0.89864039 2.4216802
-2.1171331 0.89864039 2.4216802
-2.1141 0.89864039 2.4216802
-2.1315734 0.90998429 2.4522502
-2.1285021 0.90998429 2.4522502
-2.1254308 0.90998429 2.4522502
-2.1223595 0.90998429 2.4522502
-3.1778226 1.380505 3.7202222
-3.1731634 1.380505 3.7202222
-3.168504 1.380505 3.7202222
-3.1638446 1.380505 3.7202222
-3.1591854 1.380505 3.7202222
-3.154526 1.380505 3.7202222
-3.1498663 1.380505 3.7202222
-3.2066159 1.4074588 3.7928576
-3.2018654 1.4074588 3.7928576
-3.1971152 1.4074588 3.7928576
-3.1923649 1.4074588 3.7928576
-3.1876144 1.4074588 3.7928576
-3.1781139 1.4074588 3.7928576
-3.1733637 1.4074588 3.7928576
-3.1079323 1.380505 3.7202222
-3.0986137 1.380505 3.7202222
-3.0939543 1.380505 3.7202222
-3.1496119 1.4074588 3.7928576
-3.1448617 1.4074588 3.7928576
-3.0799763 1.380505 3.7202222
-3.1353612 1.4074588 3.7928576
-3.1306109 1.4074588 3.7928576
-3.1258607 1.4074588 3.7928576
-3.1211102 1.4074588 3.7928576
-3.1163599 1.4074588 3.7928576
-3.1116097 1.4074588 3.7928576
-3.1068592 1.4074588 3.7928576
-3.102109 1.4074588 3.7928576
-3.0973587 1.4074588 3.7928576
-3.0926085 1.4074588 3.7928576
-3.087858 1.4074588 3.7928576
-3.0831077 1.4074588 3.7928576
-3.0783575 1.4074588 3.7928576
-3.073607 1.4074588 3.7928576
-3.0688567 1.4074588 3.7928576
-3.0641065 1.4074588 3.7928576
