# .PCD v0.7 - Point Cloud Data file format
VERSION 0.7
FIELDS x y z
SIZE 4 4 4
TYPE F F F
COUNT 1 1 1
WIDTH 1545
HEIGHT 1
VIEWPOINT 0 0 0 1 0 0 0
POINTS 1545
DATA ascii
-2401.2468 448.81549 2332.1094
-2100.5771 -915.26971 1980.7644
-2348.8984 335.63431 2281.3906
-2111.426 -990.99475 1982.9362
-1986.3997 122.78673 1978.1792
-2098.866 -1064.6162 1966.8601
-2183.4573 104.61372 2131.751
-2277.8208 -1171.059 2098.7615
-2743.0203 -408.5813 2529.0198
-2688.5315 -506.23422 2477.9221
-1948.199 600.1991 1999.8336
-2456.8748 571.5636 2400.3784
-2379.7869 442.15674 2328.4788
-2291.792 316.23267 2248.2312
-2120.8396 -993.51666 2003.1495
-2003.0656 129.75179 2003.906
-2103.5786 -1066.9047 1983.3314
-2124.4565 87.849709 2096.5562
-2272.6741 -1172.0499 2108.4751
-2696.3435 -412.87741 2507.6445
-2676.2419 -507.32034 2483.814
-1963.7427 611.1369 2024.7733
-2426.687 560.62549 2389.6331
-2351.0264 432.54047 2318.6353
-2097.4824 -917.42853 2003.9513
-2098.6384 246.30232 2101.8977
-2114.5042 -994.18286 2011.1219
-2010.6461 133.68036 2022.3584
-2106.6489 -1068.9619 1998.6251
-2166.4009 101.90893 2143.8809
-2275.2935 -1174.4286 2124.2798
-2727.5525 -410.21609 2548.5476
-2691.9993 -506.73569 2512.1562
-1981.9803 623.6048 2052.2104
-1962.7189 441.86984 2021.6689
-2403.8452 552.89374 2384.8176
-2335.5334 428.28198 2319.6633
-1992.0575 208.32269 2025.8203
-2112.8252 -995.40356 2022.7859
-2009.2039 134.57947 2033.4553
-2111.2056 -1071.2523 2015.1902
-2182.594 108.14155 2170.3774
-2280.9509 -1177.3647 2142.573
-2642.0081 -325.35437 2502.9949
-2681.0049 -414.48138 2526.8843
-2681.1809 -507.72137 2519.2849
-1979.3239 624.57794 2061.4001
-2360.5881 632.76965 2369.8286
-2385.78 547.1264 2383.0825
-2317.5034 422.88446 2317.6987
-2124.1521 -922.2146 2050.416
-1962.9117 198.96919 2012.9635
-2111.4543 -996.58582 2034.0173
-2019.933 139.54736 2054.0769
-2109.8213 -1072.5746 2026.4163
-2283.7969 -1179.7053 2157.9897
-2673.3862 -321.49225 2543.418
-2684.7368 -507.83163 2537.1741
-1962.29 617.84406 2058.967
-2402.4958 655.23364 2419.6455
-2365.9194 540.69299 2380.5037
-2294.7585 415.68011 2312.406
-2111.4836 -922.30792 2053.3801
-1957.0609 198.37314 2020.1891
-2117.4463 -998.73846 2051.9324
-2128.0308 177.72617 2157.3762
-2114.2366 -1074.8661 2043.0579
-2290.8345 -1182.9238 2177.6213
-2642.9133 -510.63168 2518.9756
-1976.0585 628.00061 2082.9885
-2512.7505 814.89374 2537.0701
-2358.4414 636.83972 2396.3242
-2344.6541 533.63397 2376.594
-2272.0674 408.48874 2306.9951
-2126.7266 -924.93829 2078.8889
-1959.9896 201.06978 2034.8611
-2114.0552 -999.76758 2062.3975
-2183.8071 198.23338 2217.6067
-2109.2893 -1075.7545 2052.2732
-2288.5081 -1184.4652 2189.8806
-2508.759 815.66199 2547.8171
-2303.5188 613.06342 2362.4814
-2305.1096 518.34869 2356.0598
-2239.6375 397.20111 2292.3237
-2125.1882 -925.97974 2090.2039
-1964.6455 204.34686 2050.415
-2123.3496 -1002.2612 2082.4658
-2110.8455 -1077.5409 2066.0376
-2291.1416 -1186.8059 2205.4065
-2610.3254 -234.72951 2545.6248
-2650.8352 -417.53815 2564.0227
-2491.2585 809.84369 2548.5227
-2282.1707 605.55994 2358.8074
-2282.1699 510.64444 2351.0962
-2216.7097 390.00061 2287.0967
-2147.5491 -929.36609 2122.6614
-1965.647 206.46242 2064.311
-2124.103 -1003.889 2097.1948
-2111.6086 -1079.3988 2080.7163
-2300.6023 -1190.6279 2228.1658
-2612.8511 -233.92853 2564.4158
-2642.5686 -418.35367 2574.0408
-1942.0092 617.08966 2089.4346
-2453.5288 793.26923 2529.7603
-2287.1396 610.37482 2376.3721
-2261.4639 503.66199 2346.3542
-2188.7935 380.51871 2275.8625
-1964.3428 207.54997 2074.9136
-2125.5269 -1005.4438 2111.064
-2114.5757 -1081.4189 2095.7969
-2301.5413 -1192.6897 2242.532
-2614.635 -233.27161 2580.927
-2673.3396 -415.67963 2615.072
-2405.2554 876.15057 2511.4819
-2396.9268 767.24268 2495.7317
-2235.7729 494.71182 2338.6597
-2165.9922 373.34525 2270.376
-1968.1331 210.7612 2091.3748
-2124.6113 -1006.8806 2124.5781
-2220.6355 217.25731 2303.6331
-2119.793 -1083.9823 2114.3313
-2313.8457 -1197.0793 2267.9504
-2597.3162 -235.43588 2583.0591
-2664.9053 -416.49374 2625.1626
-2442.3533 899.97229 2559.1982
-2359.0994 750.6734 2476.9802
-2207.6772 484.54153 2327.8774
-2143.613 366.21951 2264.3352
-2125.9055 -931.16382 2145.4438
-1964.9418 211.27271 2101.1455
-2120.9521 -1007.9011 2135.1152
-2117.6543 -1085.3315 2126.1292
-2321.8435 -1200.59 2289.2029
-2496.1487 933.00067 2621.4463
-2321.7878 734.16034 2457.5667
-3136.3376 1027.795 3172.4775
-2178.6143 473.78583 2315.2537
-2117.3516 357.36868 2253.9602
-2157.6914 -935.35846 2185.0852
-1940.376 203.62912 2091.4587
-2128.3032 -1010.2122 2154.1663
-2114.3198 -1086.4069 2136.2175
-2333.1819 -1204.6294 2312.5835
-2640.8301 -228.01018 2651.6565
-2916.2373 1170.2213 3014.2781
-2310.6174 731.341 2462.0554
-2388.9126 670.17603 2524.0864
-2154.939 465.54846 2307.9575
-2039.3384 327.25531 2198.2207
-2126.0547 -1011.4196 2166.0188
-2118.1658 -1088.6978 2153.1433
-2380.2476 183.3967 2478.0361
-2345.5078 -1208.994 2337.8098
-2611.7817 -231.93867 2642.8594
-2392.1467 881.91412 2558.3157
-2299.4426 728.52869 2466.4976
-2264.0713 612.56091 2426.9255
-2125.6731 454.78699 2295.4773
-2004.4486 314.8721 2180.2053
-2157.5793 -937.93872 2212.8572
-2132.8604 -1013.7679 2185.6147
-2118.8987 -1090.5156 2167.5471
-2374.4033 183.17694 2487.8486
-2354.675 -1212.7971 2360.5815
-2603.7869 -232.67763 2652.1895
-2362.6133 868.98541 2547.2939
-2257.4626 709.82544 2443.7803
-2171.554 570.55688 2358.4832
-2039.7556 418.65509 2232.4778
-2270.4434 -867.57648 2331.002
-2006.3088 317.79865 2195.6025
-2330.3062 357.20828 2479.0994
-2130.1025 -1015.0078 2197.9558
-2126.7356 -1093.5544 2188.8667
-2373.9355 184.74396 2503.2991
-2351.2378 -1214.3748 2373.6597
-2354.4294 867.60529 2553.9036
-2234.3352 700.58276 2436.2795
-2105.2756 540.85693 2311.4216
-2033.6764 418.1058 2239.4812
-1998.8781 316.66644 2201.248
-2293.4436 345.15445 2459.9238
-2132.5938 -1016.749 2213.3091
-2121.6748 -1094.3857 2197.7271
-2365.5144 183.65976 2510.0295
-2328.1392 856.26593 2544.6782
-2164.1228 666.82471 2386.2336
-2094.478 538.2334 2315.2046
-2038.4349 422.59384 2257.1011
-2134.6245 -1018.5251 2229.1433
-2128.2163 -1097.1534 2217.4058
-2375.4812 188.44843 2534.147
-2403.6919 103.61594 2552.2556
-2292.4233 839.59631 2526.5281
-2087.835 537.64624 2322.7639
-2016.538 415.05698 2250.4087
-2321.9172 455.56503 2522.7715
-2136.5801 -1020.3006 2245.0122
-2128.6646 -1098.9689 2231.9375
-2359.344 185.06453 2534.8059
-2385.9539 100.0868 2551.6802
-2262.6409 826.03168 2512.7781
-2161.8076 671.41675 2411.4302
-2474.9763 625.1554 2685.5942
-2323.4453 458.48883 2538.356
-2137.3608 -1021.8488 2259.1565
-2132.4307 -1101.2266 2248.6624
-2339.322 180.36539 2530.9858
-2371.5615 97.420715 2553.1797
-2236.2131 814.70178 2503.5518
-2179.0989 683.73804 2442.5164
-2479.6567 735.2262 2714.7856
-2462.613 622.55078 2690.9265
-2312.8569 456.64062 2544.5059
-2307.0327 358.91635 2531.8101
-2143.2515 -1024.2362 2279.4885
-2135.3208 -1103.5533 2266.3242
-2354.4109 186.93483 2560.9126
-2376.5713 100.40086 2574.0574
-2228.1536 813.36566 2509.7817
-2146.6528 669.5119 2425.6091
-2476.415 736.6236 2726.8708
-2413.6416 602.96655 2660.2942
-2352.0759 475.4292 2595.2688
-2329.6907 369.72189 2567.0957
-2140.9116 -1025.3975 2291.0557
-2131.4949 -1104.6134 2276.5515
-2351.5693 187.68338 2572.8464
-2375.1245 101.41505 2587.4133
-2202.2253 802.09247 2499.897
-2463.0935 733.25983 2730.4099
-2500.0583 645.2641 2757.1306
-2340.3459 473.03061 2599.7209
-2343.3052 377.22797 2595.1187
-2147.0261 -1027.7513 2311.0356
-2133.1548 -1106.6647 2292.5071
-2315.4094 177.99057 2554.7773
-2354.51 97.100578 2583.9685
-2067.9014 729.12042 2386.5762
-2043.4303 620.92389 2356.1487
-2457.9783 733.95398 2741.658
-2342.5364 476.50671 2617.2292
-2330.1077 374.42505 2598.2139
-2144.1597 -1028.9435 2323.0901
-2139.1738 -1109.4359 2312.4749
-2312.1382 178.71698 2567.0869
-2358.3079 99.715279 2603.1025
-2351.2327 787.70831 2663.9258
-2426.9146 721.83179 2728.2283
-2364.0874 488.19415 2653.1782
-2337.9131 379.75992 2621.0771
-2145.6709 -1030.7155 2339.1562
-2131.8284 -1110.0426 2320.5278
-2284.6721 171.76445 2556.7266
-2314.8452 88.911697 2578.1094
-2163.8755 -543.22247 2392.4536
-2142.2173 778.24908 2486.1233
-2289.7627 758.37024 2620.4961
-2382.3528 702.98096 2701.6113
-2384.0657 499.28729 2687.9604
-2358.1694 389.96799 2655.9438
-2150.0474 -1032.876 2357.937
-2143.5608 -1113.7776 2345.9163
-2315.3625 183.33986 2601.0798
-2317.168 91.130737 2595.8489
-2337.4614 893.38257 2688.9832
-2425.0139 833.86615 2765.6514
-2381.7937 705.75922 2716.0908
-2373.9207 497.51956 2693.3101
-2115.7678 -949.5083 2346.5708
-2345.2676 387.21036 2658.5652
-2147.4104 -1034.0289 2369.5938
-2139.4546 -1114.8284 2356.2151
-2315.5759 92.167 2609.1196
-2304.218 878.28455 2673.1421
-2942.8086 1115.099 3286.0552
-2861.6995 948.35974 3198.1008
-2595.6057 594.64441 2923.8472
-2176.7954 -957.13678 2418.6069
-2145.3547 -1035.4412 2383.5024
-2138.8596 -1116.6674 2371.439
-2164.9255 801.67627 2551.3323
-2957.9551 1127.3043 3319.0515
-2970.3345 1006.2742 3321.7585
-3132.9346 956.25592 3470.5767
-2170.3972 -875.35004 2433.0903
-2856.7424 708.71985 3193.3328
-2204.6543 -961.289 2458.8979
-2317.229 381.10715 2663.2341
-2145.5344 -1036.9801 2397.8821
-2140.4873 -1118.6803 2387.1379
-2172.1548 809.47137 2573.3391
-2715.4287 1001.1351 3100.0732
-2915.04 982.63678 3287.1023
-2253.9062 -796.44763 2533.0071
-2912.4707 857.9082 3275.5527
-2206.4697 -879.04779 2482.1965
-2898.113 729.63782 3252.6187
-2155.4111 -1039.922 2422.241
-2141.6223 -1120.7255 2403.3159
-2207.7629 833.94989 2624.5081
-2209.6169 -626.96387 2520.0276
-2277.2495 769.00714 2685.7964
-2337.8623 697.20422 2738.155
-2207.8298 -795.60406 2506.0664
-3114.9377 955.91028 3495.1731
-2191.0042 -879.16089 2484.0056
-2901.7646 734.71362 3276.5776
-2368.6274 406.33105 2746.2288
-2150.2288 -1040.9371 2433.5051
-2145.1492 -1123.2878 2422.6912
-2210.488 -541.56671 2527.0657
-2566.1741 1045.3298 2996.4863
-2205.156 -627.4527 2530.5076
-2922.7129 1121.5184 3342.7012
-2192.6709 -711.89362 2512.469
-2624.6045 844.62811 3037.8047
-2185.9778 -795.59113 2500.019
-3159.3606 980.33612 3558.6265
-2166.2834 -878.47058 2475.2046
-2896.8337 735.78046 3290.0706
-2422.8069 430.04691 2814.9827
-2160.3174 -1043.849 2457.5413
-2147.9907 -1125.5417 2439.854
-2880.2637 1232.2295 3329.1138
-2240.5474 -626.99225 2580.2822
-2938.2117 1134.3987 3377.7986
-2547.8445 809.67694 2979.0847
-2894.0347 737.97968 3306.811
-2369.3955 411.62122 2778.8699
-2155.4319 -1044.8273 2468.3901
-2151.76 -1128.0714 2458.8728
-2237.073 -190.71341 2608.3164
-2239.9258 -540.18048 2585.928
-2862.9546 1226.9697 3331.0698
-2242.6294 -627.3421 2598.2874
-2910.0935 1123.66 3369.2942
-2385.0271 731.07367 2833.1885
-2922.3013 753.6084 3354.6487
-2373.5405 415.86978 2799.5386
-2162.0039 -1047.3795 2490.2461
-2155.4346 -1130.601 2477.9395
-2263.1655 -184.90569 2649.7898
-2241.3921 -453.38678 2609.5273
-2227.6763 -541.01532 2589.9912
-2484.6221 1010.7939 2966.4509
-2228.8767 -628.06885 2600.9722
-2862.3608 1102.2064 3340.7192
-2310.5723 696.88239 2774.6829
-2167.8875 -965.89105 2517.5815
-2945.0188 644.87036 3388.6912
-2158.4316 -1048.5504 2502.5002
-2301.2795 292.6337 2736.9036
-2151.8577 -1131.9109 2490.1755
-2279.1543 -180.97003 2681.7007
-2225.6584 -367.60867 2616.3511
-2224.8528 -454.73718 2609.3738
-2234.0027 -540.7901 2612.1665
-2859.4565 1234.6819 3366.49
-2210.1633 750.43115 2696.1697
-2396.4199 743.98145 2878.188
-2207.1543 -971.47095 2571.5676
-2895.7407 628.52802 3359.2114
-2157.6653 -1050.1132 2517.5273
-2152.51 -1133.9502 2506.5537
-2298.3525 197.13423 2743.4763
-2223.2373 -190.59238 2642.4934
-2228.2546 -278.27032 2641.2146
-2219.1064 -368.01361 2625.9114
-2861.4663 1240.8164 3388.2029
-2873.1704 1117.2612 3391.064
-2688.6074 896.43591 3193.6123
-2200.4883 -972.20276 2581.1953
-2906.1819 635.89795 3389.8037
-2155.4045 -1051.4762 2531.1846
-2805.7405 480.0256 3279.8416
-2155.928 -1136.4773 2525.7317
-2247.5178 -185.05876 2682.8347
-2249.8145 -274.23651 2678.8362
-2937.207 -390.77255 3348.2915
-2845.3555 1236.3422 3391.3367
-2873.8423 1122.2878 3411.6345
-2931.686 1024.6136 3462.1965
-2151.1536 -968.36102 2548.835
-2743.8391 574.38794 3244.4346
-2158.7632 -1053.6305 2550.4319
-2791.998 477.86145 3285.4702
-2154.9968 -1138.2698 2540.7886
-2272.967 98.53038 2744.1333
-2266.2349 3.4564757 2730.8198
-2246.7742 -93.685448 2704.7356
-2246.4114 -184.30626 2698.05
-2739.7688 -303.38605 3179.1331
-2959.4438 -388.59164 3391.0962
-2865.887 1122.3552 3422.2788
-2820.0369 971.63605 3366.0713
-2152.083 -969.80621 2564.866
-2499.4993 479.63702 3012.0959
-2163.8921 -1055.9518 2570.6726
-2781.4978 476.72882 3293.2764
-2161.5146 -1141.2546 2562.3813
-2878.7446 393.74011 3384.552
-2280.3574 102.41683 2767.259
-2254.3823 1.8467727 2734.3625
-2234.9373 -95.154266 2708.2292
-2714.0945 -200.29071 3179.0435
-2750.2815 -301.61337 3208.1206
-2941.1829 -390.03421 3392.4697
-2816.2534 1228.9719 3399.5383
-2857.3484 1122.3893 3433.4507
-2307.3369 712.83594 2852.9751
-2141.1875 -970.05804 2570.1135
-2324.4031 412.36874 2849.3921
-2168.468 -1058.3052 2591.4194
-2773.1389 476.55054 3304.3679
-2157.6062 -1142.5533 2574.7043
-2876.876 395.73111 3402.9517
-2848.3342 271.10785 3365.7014
-2719.7825 -92.281845 3211.5732
-2719.7969 -198.55348 3204.2595
-2750.3015 -301.08499 3227.8176
-2897.0876 -393.77151 3368.8066
-2821.3091 1237.3579 3425.8159
-2845.6436 1120.9655 3442.438
-2945.8755 1045.3223 3538.5571
-3120.5032 999.9007 3711.9351
-2110.126 -968.18878 2555.9895
-2292.8601 402.63336 2834.5613
-2909.6187 529.52765 3466.5864
-2167.2344 -1146.3379 2601.5051
-2866.2295 395.00491 3413.5208
-2875.9517 281.63477 3415.5823
-2795.9546 145.66943 3325.4199
-2676.0354 6.6641364 3194.7014
-2727.551 -89.545143 3240.1765
-2716.4858 -198.16261 3221.5537
-2751.0764 -300.41995 3249.5098
-2907.1873 -392.63242 3400.9692
-2174.2048 -544.84076 2649.7478
-2765.7236 1209.4514 3387.0493
-2829.1882 -616.9491 3327.3013
-2844.7488 1125.2931 3461.6885
-2997.9705 1076.7898 3614.209
-2103.4888 -968.88367 2565.3372
-2273.8857 397.77762 2831.6294
-2950.4036 547.5423 3529.8196
-2857.4631 394.77039 3424.9055
-2867.1392 281.35126 3427.0269
-2943.2983 185.93089 3497.9849
-2718.6736 17.792128 3258.1062
-2730.1924 -87.828323 3262.6328
-2716.4143 -197.29539 3241.1719
-2738.3865 -301.42987 3256.4299
-2900.9551 -392.95834 3415.5286
-2142.2805 -546.73041 2633.5156
-2390.0103 990.1803 3006.24
-2873.9509 -616.3512 3392.6384
-2844.324 1129.6603 3480.4194
-2798.2742 -725.19855 3307.8621
-3004.9343 1084.8394 3641.6868
-2807.478 -832.51447 3310.0186
-2831.7363 -942.31506 3327.4077
-2175.6204 -978.15692 2653.8005
-2829.3579 624.83264 3430.9666
-2789.6353 -1152.3608 3270.1335
-2841.5244 510.4856 3435.679
-2834.3982 389.66763 3420.2183
-2858.8545 281.11136 3437.8933
-2959.3218 192.03098 3534.6428
-2702.5671 15.628711 3260.0615
-2737.407 -85.283066 3288.877
-2709.8884 -197.47787 3253.1382
-2731.7825 -301.7113 3268.4854
-2484.8516 -430.09052 3007.2007
-2777.4438 -511.00421 3301.04
-2560.979 1097.0195 3206.667
-2874.6003 -616.78748 3414.3459
-2840.7043 1132.5671 3496.991
-2817.2764 -726.18365 3347.9893
-3004.7285 1089.5028 3662.9368
-2840.3972 -835.08795 3364.4719
-2833.8645 -943.9704 3350.4319
-2443.4194 -1009.2158 2944.1428
-2938.4866 672.45306 3566.7292
-2829.4548 -1160.2504 3331.3611
-2253.6343 296.93317 2836.5442
-2817.6152 -1267.6166 3311.9607
-2935.7646 426.03918 3547.3716
-2840.4993 278.03299 3439.3655
-2910.6721 181.38516 3505.1042
-2692.7615 14.984641 3269.6174
-2730.2136 -85.409103 3301.4233
-2702.7683 -197.69193 3265.6289
-2171.9365 -457.98846 2701.7271
-2872.9209 -505.71991 3420.0796
-2464.0574 1043.5289 3120.1348
-2854.9133 -617.65356 3413.9265
-2824.8342 1128.3877 3499.3567
-2821.3569 -726.97107 3371.8828
-2961.2671 1071.4558 3636.821
-2824.9221 -835.48529 3368.3296
-2829.5132 -945.04602 3365.7683
-2472.2124 -1013.9512 2991.2109
-3091.0271 737.76593 3748.8987
-2830.6201 -1162.5001 3352.396
-2822.9385 -1270.978 3337.1995
-2919.7803 303.84857 3542.615
-2889.918 177.90134 3503.2866
-2707.9983 19.945044 3304.3767
-2723.5298 -85.493866 3313.4187
-2679.6665 -200.47017 3260.3259
-2836.6499 -507.84753 3402.3477
-2379.229 997.57361 3047.6069
-2821.6321 -618.86353 3401.5498
-2814.2061 1127.7073 3509.5876
-2777.0562 -727.31067 3347.9011
-2898.8547 1043.9889 3592.2634
-2795.8086 -835.39325 3360.2808
-2808.6736 -945.00018 3366.4243
-2167.1243 -981.64227 2695.3408
-3104.4099 747.20459 3786.8293
-2795.8953 -1159.802 3338.8669
-2842.8435 520.29449 3499.1704
-2810.3655 -1271.447 3346.5474
-2231.1387 196.48557 2840.1567
-2932.8142 310.34152 3579.0247
-2838.3142 166.54738 3471.0007
-2675.7783 14.333162 3291.5071
-2667.9465 -94.844917 3276.1074
-2112.3245 -376.71783 2678.3259
-2976.6157 -385.11871 3578.5757
-2791.4719 1250.9108 3514.1511
-2800.3076 1124.9326 3515.1243
-2099.7837 -720.4187 2658.9531
-2883.3472 1040.6577 3596.6646
-2079.9182 -973.3454 2621.4683
-3091.9714 745.9657 3796.0603
-2745.3228 -1154.6357 3307.3831
-2868.2012 532.89484 3547.3518
-2795.603 -1271.3759 3352.429
-2858.8928 174.04538 3513.9641
-2664.5217 13.398992 3299.5391
-2109.6372 -376.55368 2691.9265
-2975.2625 -384.94531 3599.2065
-2787.6555 1254.0602 3530.552
-2814.1711 1137.8282 3550.9351
-2893.3333 1050.7032 3628.7793
-3178.7119 1059.9502 3930.5483
-2055.1523 -971.99658 2611.9956
-3066.4285 739.38074 3791.0959
-2859.0447 532.7323 3558.7307
-2780.8354 -1271.2963 3358.2515
-2886.8582 421.125 3580.7859
-2211.9912 99.486938 2847.5615
-2185.2473 -1.6298788 2812.7275
-2149.9976 -102.49009 2768.9343
-2714.634 -192.00729 3358.9497
-2113.7161 -375.53766 2712.7944
-2854.7056 -395.51294 3493.4646
-2105.6746 845.69318 2799.2739
-2825.9087 1149.3324 3583.553
-2976.1846 1098.8677 3739.7993
-3165.3452 1058.0369 3937.9497
-2013.0851 -968.58655 2583.1599
-3063.73 741.94397 3809.5525
-2851.7471 533.10211 3570.9607
-2911.2097 432.07513 3627.5225
-2177.2942 -2.1194234 2820.2417
-2721.1218 -80.683929 3392.4351
-2717.2068 -190.65627 3381.1375
-2090.9331 -377.8829 2704.1619
-2858.2419 -394.90308 3517.5876
-2767.9697 1252.8563 3549.0933
-2820.6067 1151.5514 3598.7869
-2852.613 1038.766 3625.7024
-3150.0496 1055.4683 3944.4949
-2843.8188 533.44141 3583.7253
-2903.0803 432.31033 3640.5066
-2910.4436 313.71228 3640.7244
-2755.7795 153.02841 3465.1543
-2726.3723 32.517307 3425.9709
-2728.3723 -77.903938 3420.9875
-2721.8096 -188.90717 3406.8196
-2078.6182 -378.8916 2707.5254
-2880.1089 -392.6069 3562.7771
-2752.8521 1249.228 3553.0698
-2807.7395 1149.5073 3605.6829
-2823.1729 1028.1218 3614.501
-3125.8223 1048.5421 3941.1145
-2949.3113 702.62866 3729.2458
-2833.2324 532.8067 3593.6055
-2894.9019 432.5513 3653.4744
-2894.2959 311.46506 3645.072
-2850.4338 180.33357 3589.5315
-2721.405 33.128586 3441.4202
-2730.1077 -76.170448 3443.7778
-2712.8076 -189.31207 3417.9402
-2062.249 -380.40042 2706.4468
-2878.6782 -392.40289 3583.2266
-2750.0703 1253.1525 3570.8054
-2818.5396 1160.9791 3639.0042
-2863.0513 1054.1995 3680.3618
-2000.4628 -805.07922 2629.2478
-3153.7249 1067.1929 3995.5764
-2842.1282 539.52258 3625.0256
-2873.5764 428.35645 3651.9758
-2864.9729 305.23856 3634.8464
-2838.3513 179.34393 3598.053
-2721.6997 34.973278 3462.7102
-2737.0854 -73.390221 3472.4646
-2701.0815 -190.14149 3426.1045
-2070.1653 -378.86432 2731.7217
-2859.5845 -393.78717 3584.5989
-2733.0266 1248.063 3571.4028
-2814.8494 1163.9547 3655.1172
-2863.0212 1058.9493 3700.9014
-3126.2236 783.63873 3969.8879
-2838.4966 541.37897 3641.5605
-2858.1133 425.98309 3655.6216
-2849.4778 303.04654 3638.4685
-2824.2041 177.69055 3603.062
-2739.7373 40.844021 3502.5286
-2728.501 -73.708122 3483.0747
-2699.2852 -189.42551 3443.9875
-2075.731 -377.63913 2753.6968
-2857.2898 -393.65982 3603.0059
-2724.6677 1248.9487 3584.0837
-2811.1572 1167.5773 3673.7112
-2894.218 1080.9741 3759.2559
-2806.4563 532.89941 3628.8328
-2836.2441 421.77426 3654.4988
-2810.5254 294.0224 3618.3347
-2777.2581 167.51001 3573.9832
-2740.5117 42.963013 3525.9424
-2726.6812 -72.52314 3503.5659
-2696.2432 -188.77316 3462.9543
-2060.1707 -378.99042 2754.4373
-2844.2852 -394.45303 3612.2114
-2716.1831 1249.1512 3594.3142
-2791.2781 1161.3274 3671.5847
-2905.1218 1091.7244 3792.6753
-3147.0444 1078.9171 4058.395
-2807.9214 536.72382 3651.1028
-2824.6956 420.74872 3662.3748
-2787.2773 289.4628 3612.9941
-2757.9539 164.46805 3572.9219
-2741.0349 44.845009 3546.8484
-2729.9199 -70.486343 3527.436
-2683.6458 -189.76636 3469.0454
-2058.9077 -378.60135 2769.0637
-2844.53 -394.07364 3633.5869
-2704.0818 1247.7886 3602.7642
-2792.4031 1167.8019 3695.7773
-2877.365 1082.4102 3784.7329
-3101.9646 1062.0309 4032.5457
-1950.2004 -888.99805 2635.042
-2782.4041 530.71124 3645.4204
-2844.2307 430.74167 3707.8203
-2798.0017 295.58832 3648.2249
-2758.415 167.00514 3596.3997
-2740.2717 46.662914 3568.8618
-2731.854 -68.514732 3552.4275
-2669.8667 -190.81784 3476.1484
-2043.3422 -379.93893 2769.7083
-2836.7676 -394.36792 3648.6865
-2702.2385 1252.4913 3621.8574
-2794.0044 1174.3119 3719.478
-2837.9128 1066.4806 3761.8816
-3136.4424 1084.4095 4096.1084
-1986.0405 -893.1283 2691.4365
-2824.0842 550.13965 3714.8743
-2824.1965 427.0332 3707.4714
-2814.3289 303.33633 3688.8955
-2731.9917 162.18602 3588.3833
-2732.1406 46.681484 3581.4863
-2723.7356 -68.587959 3565.0581
-2397.8174 -233.75902 3191.2632
-2038.8663 -379.90302 2781.7708
-2834.8792 -394.13736 3669.1748
-2698.4714 1255.7224 3637.6462
-2783.8699 1173.7603 3728.533
-2820.2043 1061.9235 3762.5317
-3140.1125 1091.2612 4123.4155
-2954.0037 603.271 3884.8872
-2813.7932 426.46698 3716.7678
-2807.8047 303.96228 3702.6113
-2727.0256 163.03992 3603.3821
-2729.7847 47.96093 3599.4944
-2717.4822 -68.363235 3578.6243
-2055.623 -288.32318 2822.3247
-2059.907 -376.66144 2821.772
-2825.5771 -394.59482 3680.1641
-2703.7031 1264.9493 3665.2112
-2775.5476 1174.6013 3740.925
-2840.0444 1077.9835 3807.9629
-3121.8835 1087.5066 4126.8936
-1919.2965 -971.84296 2644.5127
-3053.0955 645.10327 4022.5596
-2823.2217 432.95361 3750.1296
-2812.2002 308.13446 3730.166
-2723.9866 164.56921 3621.8799
-2731.9512 50.433327 3624.0049
-2709.2656 -68.425285 3591.2249
-2039.1786 -290.06406 2820.9709
-2046.0317 -377.79129 2823.4309
-2824.8491 -394.23532 3702.1709
-2681.7476 1256.8969 3659.8782
-2773.8503 1179.0256 3759.8813
-2859.0405 1093.4061 3851.5667
-3129.0791 1096.2307 4158.5732
-1927.3054 -974.159 2669.3567
-3026.6519 638.65564 4014.856
-2799.9404 427.97397 3744.6643
-2810.6643 310.35587 3749.8242
-2729.2119 168.24203 3648.783
-2734.6069 52.93964 3648.0259
-2670.3457 -74.673019 3567.3848
-2242.9014 -255.94971 3070.8608
-2040.5183 -377.88843 2833.6147
-2818.0715 -394.44147 3716.1418
-2681.4294 1263.0901 3682.3379
-2761.1824 1177.7194 3768.5068
-2847.2422 1092.7909 3861.9153
-3107.6433 1091.2123 4159.6758
-1913.176 -973.98676 2671.1416
-3034.3079 645.80109 4049.4214
-2807.2524 433.99118 3777.1694
-2816.7429 315.29242 3780.9976
-2730.5139 171.15016 3673.832
-2729.4629 53.859196 3665.6853
-2681.0085 -70.863853 3602.8777
-2720.2544 -176.81067 3641.4954
-2032.6965 -378.19824 2843.127
-2804.7288 -395.18918 3725.1897
-2668.4658 1261.0421 3688.7212
-2761.1536 1183.5392 3790.8577
-2793.4155 1068.9337 3821.2642
-2371.8015 724.67108 3315.7654
-1871.9259 -889.15179 2645.6575
-1887.7169 -972.35297 2658.9495
-3017.2905 643.23657 4053.9602
-2813.7524 439.59906 3807.7278
-2816.9172 318.27982 3804.249
-2737.4275 175.49567 3704.3718
-2736.4402 57.558014 3696.312
-2710.1904 -63.401096 3658.9976
-2726.0579 -174.61397 3670.7319
-2728.6011 -288.72385 3666.9612
-2803.749 -394.81671 3747.2302
-2662.6265 1263.5142 3703.5842
-2753.8105 1185.1105 3804.6384
-2329.7117 820.34113 3292.1843
-2341.3157 713.62384 3299.4146
-1842.7108 -887.76581 2628.6921
-1884.5863 -973.4126 2672.2112
-2975.2048 630.94061 4028.8225
-2818.8372 444.76617 3836.8706
-2818.251 321.66666 3829.0273
-2731.4199 176.33549 3719.9944
-2735.5642 59.430153 3717.991
-2715.8662 -60.600239 3688.1899
-2726.5376 -173.26625 3693.9937
-2731.6777 -287.465 3693.3013
-2796.1587 -395.03946 3761.7273
-2272.0396 1021.6701 3254.9143
-2747.0249 1186.7178 3817.8828
-1849.4734 -726.71973 2661.637
-2349.7148 835.84528 3334.6948
-2359.0767 726.8291 3339.311
-1871.4381 -973.17114 2673.0059
-2972.6873 633.78644 4048.9058
-2830.7019 452.17276 3872.9863
-2799.855 318.75183 3829.3423
-2732.3286 178.96323 3742.5947
-2739.0457 62.249401 3743.6848
-2718.1628 -58.542633 3712.3811
-2717.2185 -173.58315 3704.6404
-2731.3713 -286.67029 3714.604
-2791.7449 -394.9856 3778.6985
-2660.8069 1274.5146 3744.2158
-2738.3809 1187.5918 3830.2009
-2348.4707 840.02124 3353.1357
-1796.8905 -805.9184 2612.2341
-2345.6858 724.4884 3343.2615
-1782.5428 -963.69092 2586.3853
-2948.2488 628.33142 4044.2854
-2805.3948 446.75418 3866.3984
-2785.8911 317.39795 3836.1294
-2736.3115 182.61333 3770.2852
-2746.8721 66.2556 3776.0117
-2714.5994 -57.546505 3731.0896
-2717.5125 -172.22833 3727.9441
-2735.4893 -285.24164 3742.5581
-2798.2432 -393.88589 3809.9236
-2658.8601 1279.9761 3765.3293
-2736.2102 1192.6898 3851.6846
-2309.3743 823.57983 3326.9519
-2317.2126 714.68396 3330.0354
-2342.9956 614.7254 3354.8044
-1771.3719 -963.78668 2590.6475
-2882.2683 606.80591 3990.8894
-2815.73 454.10294 3903.6992
-2775.0459 317.20798 3847.9214
-2742.0481 186.93448 3801.5908
-2742.4695 67.497108 3795.3206
-2715.4207 -55.544529 3756.4224
-2708.1023 -172.38393 3741.1638
-2718.2856 -286.48676 3746.7183
-2782.0413 -394.84006 3815.8342
-2647.4619 1278.7377 3772.5315
-2733.9929 1197.1428 3870.6963
-2277.51 810.52625 3306.9502
-1741.895 -804.69055 2580.2349
-2305.6194 713.00623 3334.8503
-2347.1008 620.6145 3378.9155
-2417.8862 540.20978 3458.4509
-2848.854 597.52325 3973.4038
-2817.207 457.98727 3927.9885
-2764.1855 316.69049 3857.0945
-2756.447 193.41583 3840.9822
-2744.3115 70.018494 3819.6414
-2723.7344 -52.190975 3788.3438
-2705.0071 -171.62621 3759.3982
-2695.9607 -288.48755 3742.0928
-2782.5308 -394.29755 3838.9431
-2627.2603 1272.2202 3770.1306
-2719.2593 1194.4951 3875.7378
-2273.8682 813.39551 3322.323
-2285.0564 706.96942 3329.77
-2338.4043 620.72485 3388.7173
-2366.1121 521.68335 3416.3157
-2795.2041 580.44843 3932.3191
-2820.3992 462.72458 3955.8745
-2760.1423 318.52026 3875.8481
-2754.9507 195.67102 3862.8081
-2742.877 71.905365 3841.4958
-2718.5908 -51.442062 3805.6106
-2711.3608 -169.20319 3790.4197
-2698.5515 -287.21054 3768.5466
-2780.9761 -393.90152 3861.1013
-2619.9084 1273.9718 3783.5049
-2705.6975 1192.5627 3882.1797
-1741.4089 -727.60205 2616.7932
-2259.4624 810.29425 3324.5132
-2265.7424 701.56171 3326.0725
-1700.03 -881.79486 2558.5364
-2324.8342 618.5401 3392.5547
-2368.2275 526.52441 3439.6633
-2795.8286 584.76794 3957.0637
-2817.2742 465.2627 3976.2659
-2765.9568 323.5137 3906.7439
-2754.5984 198.27914 3886.1831
-2743.8496 74.402122 3866.4299
-2722.197 -48.887409 3833.5977
-2704.8931 -168.89113 3806.1755
-2714.9773 -284.12015 3811.9514
-2778.041 -393.62033 3881.7507
-2625.2727 1283.9862 3812.7668
-2239.1475 803.8833 3319.2993
-1708.774 -805.33417 2589.6428
-2253.6421 699.88098 3331.1631
-1739.1973 -886.39197 2622.0344
-2300.4231 611.18732 3382.9336
-1838.5103 -977.82178 2737.2261
-2348.3743 521.82007 3436.0828
-2747.4194 569.66846 3921.5908
-2823.9053 471.32581 4008.7815
-2765.4236 326.53503 3930.1072
-2756.6255 201.58873 3912.6406
-2744.7004 76.901901 3891.4033
-2720.637 -47.358875 3855.502
-2708.4492 -166.88589 3834.2285
-2728.637 -281.36099 3852.4102
-2780.0862 -392.86215 3908.5842
-2926.6282 -502.21634 4079.95
-2614.3 1283.4956 3821.8062
-1689.5867 -727.73267 2586.9719
-2260.1741 820.69928 3365.5327
-1812.4897 -811.67267 2732.1094
-2240.3425 697.58759 3334.7275
-1830.0649 -895.69983 2748.9709
-2289.2952 610.16846 3389.6182
-2323.7263 515.00415 3426.4058
-2320.3193 403.64517 3416.2385
-2826.6902 476.07043 4036.8203
-2773.4141 332.32132 3964.1699
-2761.001 205.59891 3942.2048
-2752.907 81.221451 3925.6248
-2723.9792 -44.799397 3883.5859
-2711.8616 -164.87859 3862.3389
-2734.5134 -279.58856 3883.7249
-2773.1465 -392.92703 3924.647
-2934.3184 -501.63333 4115.0498
-2610.8257 1287.5398 3839.0242
-2230.9485 809.01819 3348.0059
-1777.8635 -810.59625 2706.207
-2229.9583 696.56335 3340.7715
-2275.1157 607.45624 3391.3245
-2312.979 514.05389 3432.7124
-2330.189 410.98676 3448.2788
-2845.896 486.56268 4084.1355
-2769.5967 334.19415 3982.5002
-2762.1814 208.59372 3966.6909
-2745.4495 81.636604 3939.396
-2730.3325 -41.695515 3914.2732
-2710.7803 -163.68282 3883.7881
-2725.8174 -279.754 3895.9963
-2775.6252 -392.13266 3951.0017
-2910.9819 -502.80338 4110.9062
-2536.6138 1245.8041 3767.9578
-2175.532 782.7395 3298.2288
-2217.8354 694.90234 3345.7317
-2249.6665 599.55731 3379.9248
-2298.0515 511.49594 3434.9128
-2316.344 409.08936 3452.0403
-3069.9666 571.29596 4389.8032
-2774.8359 339.19571 4013.6265
-2769.9714 213.6537 4000.9761
-2750.8904 85.355072 3970.6519
-2727.1726 -40.414295 3934.7444
-2711.4368 -162.09119 3908.8955
-2725.1743 -278.79559 3919.6482
-2777.3013 -391.36517 3977.9524
-2894.5393 -503.56592 4116.5527
-2590.981 1288.0887 3859.8945
-2165.9417 782.33075 3305.9827
-2185.6863 682.72717 3325.2583
-2242.1177 600.28278 3390.9546
-2278.3455 506.82681 3431.0046
-2301.2937 406.71408 3454.2275
-2381.1782 326.05331 3549.1182
-2788.4573 346.95602 4055.5659
-2762.8584 214.53476 4016.8582
-2753.7031 88.470657 3998.8865
-2728.8677 -38.103901 3961.4324
-2709.4819 -160.91696 3930.938
-2723.1667 -277.99725 3941.7776
-2773.8398 -391.06424 3998.7236
-2873.0828 -504.60358 4115.9092
-2032.6805 927.73053 3166.8704
-2164.4678 786.56641 3324.1101
-2184.1821 686.651 3343.5435
-2230.979 599.29163 3397.4458
-2262.2637 503.75552 3431.5547
-2285.054 403.86246 3454.8289
-2364.5691 323.41507 3549.947
-2801.8574 354.71582 4097.6221
-2772.7922 220.2952 4054.3513
-2753.9189 90.985008 4024.0745
-2710.6953 -39.887173 3963.3091
-2716.0886 -158.26871 3963.9014
-2724.7803 -276.70438 3968.6086
-2766.5474 -391.11002 4014.8267
-2855.4058 -505.41837 4119.8545
-2295.5203 985.1084 3518.8853
-2140.8979 778.21851 3313.95
-2163.8914 680.6817 3337.8386
-2221.0022 598.88062 3405.4106
-2254.5146 504.39691 3442.6758
-2266.4414 400.04984 3452.3066
-2343.1628 319.02951 3544.5645
-2815.0322 362.47488 4139.7959
-2774.0032 223.62056 4081.1057
-2757.6807 94.408165 4053.96
-2731.8589 -33.473808 4014.9446
-2717.5894 -156.4583 3990.6982
-2728.7319 -275.08221 3998.6118
-2771.5876 -389.98056 4046.5708
-2837.7346 -506.22379 4123.7305
-2125.4883 774.51685 3314.1299
-2145.9846 675.95837 3335.0486
-2195.7366 591.0174 3393.6599
-2238.4414 501.34009 3443.1169
-2255.0161 399.15121 3458.8921
-2315.8159 312.45996 3531.387
-2825.5713 369.44684 4178.9927
-2788.426 230.77429 4124.9727
-2772.2605 100.54833 4097.9146
-2755.1855 -26.552446 4069.8672
-2718.9563 -154.64473 4017.5415
-2731.2976 -273.62085 4027.1091
-2767.8152 -389.66638 4067.4033
-2833.6897 -506.24573 4144.7979
-1972.566 904.89142 3145.9214
-2112.3958 772.14685 3317.2402
-2133.9143 674.33411 3339.7188
-2178.7488 587.17963 3392.4114
-2220.0283 497.23334 3440.4382
-2234.0779 394.38684 3453.1575
-2304.1033 311.60291 3538.134
-2811.8628 368.55597 4187.2998
-2791.7354 234.79922 4154.9658
-2787.8147 106.98875 4143.5576
-2763.5752 -22.700212 4106.1924
-2715.2915 -153.66577 4038.158
-2728.8059 -272.80789 4049.3784
-2760.2507 -389.69714 4083.5342
-2828.3103 -506.33304 4164.3076
-1989.842 921.78607 3186.564
-2099.8435 769.80438 3319.8801
-2125.8491 674.59143 3348.4524
-2161.1787 582.79797 3389.1362
-2210.4392 496.85834 3447.9492
-2222.0439 393.04102 3457.6528
-2291.771 310.33698 3542.8354
-2607.2302 304.82266 3946.5325
-2801.613 240.59074 4192.2642
-2791.7288 110.44324 4173.1416
-2770.0413 -19.33065 4138.9243
-2720.751 -151.19093 4069.2544
-2731.7915 -271.31326 4077.425
-2768.0293 -388.29819 4118.0205
-2827.2434 -506.17694 4187.9941
-1981.7791 922.18237 3195.1907
-2084.4753 766.12421 3319.8845
-2114.905 673.59735 3354.5601
-2162.8313 588.14722 3412.1326
-2192.0723 492.76712 3445.1357
-2209.4341 391.6795 3462.5498
-2270.5444 305.98758 3537.1025
-2335.3782 218.73729 3616.3774
-2806.9985 245.31459 4225.5122
-2783.9497 111.16319 4189.2202
-2769.5928 -17.261646 4164.4111
-2722.9348 -149.15874 4097.8022
-2729.0703 -270.49252 4099.7529
-2770.0415 -387.38989 4146.8188
-2820.4507 -506.32413 4205.9468
-1954.2266 909.83514 3178.989
-2104.7207 895.6604 3373.5791
-2079.957 769.0473 3335.3079
-2098.8145 670.11841 3354.98
-2151.0891 587.1748 3418.7893
-2182.5 492.89053 3454.9753
-2191.5547 388.36963 3461.6567
-2260.6021 306.00589 3547.2573
-2335.8342 222.23251 3640.8152
-2801.9475 247.2379 4246.8467
-2796.9958 117.2788 4234.1201
-2764.6982 -15.980158 4185.75
-2719.4382 -147.98492 4120.6221
-2732.8208 -268.71973 4132.1323
-2769.9788 -386.62106 4174.6313
-1936.181 903.50708 3174.1423
-2014.1947 844.53442 3273.1992
-2069.1145 768.02631 3341.2566
-2087.8574 669.13751 3360.9976
-2131.8279 582.22028 3414.2561
-2167.657 490.39993 3456.6492
-2181.2874 387.98956 3469.5442
-2244.1509 303.42554 3547.5903
-2327.3044 222.61414 3652.3142
-2809.4009 252.66144 4283.3472
-2791.3823 118.60979 4253.3936
-2770.0081 -12.628736 4219.1943
-2715.323 -146.9888 4141.3418
-2739.5168 -266.59384 4167.2085
-2764.428 -386.4006 4194.0024
-1918.6898 897.20532 3168.8293
-2096.8669 902.01129 3403.168
-2057.6702 766.36975 3345.2444
-2078.5715 668.79999 3368.0869
-2122.3499 581.87567 3421.4922
-2149.9231 486.35303 3453.1987
-2166.9097 385.70346 3470.7532
-2229.48 301.31189 3548.9697
-2309.9082 219.88513 3650.791
-2813.8279 257.07281 4314.6611
-2793.5398 121.77531 4281.5986
-2778.2505 -8.7400255 4255.3296
-2696.2134 -148.67262 4140.9146
-2738.3157 -265.57385 4190.6987
-2770.366 -385.10818 4227.1509
-1998.8019 957.49219 3296.6191
-2052.4238 768.66681 3358.7014
-2065.3167 666.59698 3370.9795
-2107.7195 579.22656 3422.9692
-2138.5735 485.46112 3459.3872
-2164.7322 388.71716 3489.4575
-2218.905 300.93445 3556.9924
-2316.5935 225.37701 3682.6453
-2802.0344 256.95621 4326.0801
-2796.0269 125.21872 4311.9775
-2782.0173 -5.6388507 4287.3335
-2646.5557 -155.58037 4101.1851
-2745.8796 -263.28128 4227.4985
-2775.4126 -383.83939 4260.9165
-1998.0731 963.1449 3315.749
-2043.7596 768.98523 3367.5952
-2056.5803 666.86871 3379.9465
-2099.9312 580.01904 3433.6389
-2123.7668 482.99243 3460.8848
-2143.9832 384.00906 3483.2241
-2207.1411 300.12601 3563.4155
-2288.0281 219.11171 3667.3367
-2804.2634 130.16641 4350.3403
-2798.6638 0.26208583 4336.8926
-2720.9548 -140.82303 4226.9492
-2747.2773 -261.79489 4256.4014
-2776.6897 -382.91397 4289.959
-1985.2289 960.57251 3318.4165
-2029.4905 766.00513 3368.8486
-2066.9297 677.6322 3414.9788
-2086.4329 577.95581 3436.5652
-2111.2578 481.58633 3465.4324
-2119.8403 377.862 3472.2053
-2190.73 297.57541 3563.5146
-2251.425 210.11531 3640.8408
-2286.5911 111.35027 3683.4524
-2819.3542 136.91612 4398.3296
-2798.5017 2.605341 4364.2764
-2718.7493 -139.39317 4250.9678
-2753.283 -259.65909 4291.7529
-2773.0508 -382.44528 4312.6411
-1953.8766 945.29266 3295.5049
-1926.3833 816.8269 3252.6602
-2063.6533 680.99591 3431.645
-2068.4204 573.61108 3433.2466
-2101.0193 481.24164 3473.0503
-2117.5566 380.89282 3490.8394
-2173.1877 294.5957 3561.9705
-2241.6841 210.14008 3650.5332
-2284.8435 113.74564 3704.395
-2810.7534 137.66835 4414.5874
-2797.0266 4.6987329 4390.1025
-2768.3679 -128.81485 4345.46
-2760.2864 -257.35941 4328.7856
-2777.6111 -381.16666 4346.5811
-1913.4374 923.31207 3258.5054
-2011.7109 877.09088 3389.7786
-2045.2383 675.75031 3426.3313
-2078.0085 583.01892 3466.6755
-2094.7285 482.50348 3484.8989
-2104.3481 379.1225 3493.3638
-2158.564 292.51712 3563.074
-2227.895 208.62486 3653.4111
-2297.5532 120.31567 3743.9956
-2828.4993 145.04538 4465.4082
-2790.3079 5.5523553 4407.4062
-2773.5056 -126.11263 4378.771
-2756.0381 -256.64462 4349.2812
-2783.9207 -379.746 4381.6475
-1848.9331 884.88074 3188.5049
-1921.1196 824.67511 3284.4436
-2036.3176 676.04199 3435.2463
-2073.4128 585.54785 3481.9429
-2083.3018 481.64316 3490.9006
-2091.7065 377.82269 3497.8352
-2152.5173 293.92032 3577.2039
-2210.051 205.92299 3651.9175
-2279.3533 117.87704 3742.7002
-2826.6304 147.60451 4491.3203
-2816.6111 13.74229 4471.7832
-2790.6135 -121.14909 4430.3818
-2752.1311 -255.78758 4371.9419
-1868.7826 904.77008 3236.0256
-2050.718 914.46991 3486.5071
-2064.9937 697.29272 3496.762
-2055.3572 581.2215 3478.512
-2072.9841 481.31613 3498.4316
-2074.53 374.60095 3495.9534
-2139.572 292.70892 3581.8203
-2201.4058 206.35846 3663.0847
-2258.8813 114.75566 3738.1323
-2803.0435 13.312176 4481.6865
-2796.9399 -118.05202 4467.6323
-2776.1836 -251.06621 4433.3682
-1828.3625 882.80804 3198.8826
-1990.8073 881.78375 3423.5779
-2021.1665 788.85248 3461.6294
-2056.9563 698.20709 3507.2913
-2044.0111 580.33234 3484.3728
-2059.2852 479.41455 3501.2156
-2067.5334 375.7247 3508.2205
-2122.084 289.75879 3580.0364
-2188.1531 205.2361 3667.8496
-2240.7554 112.33426 3736.676
-2767.0723 -121.37539 4454.8892
-2719.5303 -257.43069 4383.334
-1775.3663 851.89288 3143.3181
-1997.0431 892.03577 3453.6975
-2014.3365 790.52588 3473.5305
-2041.1927 694.81488 3506.9224
-2069.0042 488.58087 3537.019
-2051.5024 372.99893 3507.8081
-2109.146 288.56195 3584.5459
-2168.0752 201.77505 3662.9749
-2222.6609 109.92096 3735.1443
-1792.3102 869.56738 3185.9473
-1982.2069 888.23676 3452.8047
-1997.1833 785.62231 3469.5569
-2036.9565 697.60559 3521.6555
-2029.5623 582.58826 3506.5496
-2051.355 484.60117 3533.043
-2041.666 372.70636 3514.8499
-2087.7957 283.8999 3575.8242
-2158.845 201.85768 3671.9954
-2214.3247 110.29566 3745.9568
-1819.6437 895.427 3246.189
-1975.903 890.74225 3466.4775
-1987.5802 785.97119 3478.7031
-2031.5059 700.36719 3537.2078
-2047.1987 597.11902 3555.1604
-2035.9042 482.17444 3534.5601
-2030.6469 372.38577 3522.6868
-2078.7773 284.4444 3587.0293
-2150.6128 202.69154 3685.0708
-2199.0305 108.9146 3749.5818
-2322.6924 31.082165 3920.9087
-1806.5699 892.18774 3246.3391
-1971.7229 893.98822 3480.8938
-1971.5482 781.74121 3476.1602
-2001.1158 688.39246 3514.4097
-2059.1746 608.25677 3593.6384
-1999.6042 469.26227 3503.5059
-2016.3304 370.17908 3523.2939
-2068.6714 284.15689 3594.1697
-2131.2083 199.27103 3679.5667
-2184.9922 107.577 3752.2637
-2322.8345 33.750854 3945.0225
-1815.5627 905.35272 3280.8296
-1952.5721 888.06689 3476.0359
-1960.8424 781.44354 3483.6741
-2006.4327 697.32214 3545.552
-1988.1576 576.5517 3514.6804
-2067.5959 506.84268 3625.5186
-2014.1124 373.72205 3543.824
-2062.9058 286.02094 3610.1406
-2126.2727 201.28963 3697.4099
-2182.0559 110.00328 3773.5811
-2298.9702 30.415493 3937.6108
-1884.4738 961.08704 3402.4229
-1943.5326 888.49579 3484.6191
-1957.0714 785.12347 3500.1128
-1990.6664 693.96326 3544.9438
-2009.229 592.82056 3567.7549
-2062.3301 509.18185 3640.9502
-1998.0908 371.03067 3543.1614
-2037.7567 280.06564 3596.738
-2108.5205 198.64757 3695.4385
-2175.1731 111.07337 3787.9854
-2298.3022 33.076736 3962.1841
-1881.4319 965.3194 3418.0725
-1909.7913 872.0766 3455.603
-1934.6906 776.95715 3488.0515
-2002.543 594.26929 3579.3818
-2045.6355 505.75662 3638.4304
-1989.2433 371.24802 3551.6509
-2034.2295 282.4097 3613.4287
-2098.061 198.37022 3702.6829
-2151.0469 106.6545 3775.9365
-2271.3357 28.600609 3947.1824
-1818.6854 927.00073 3346.3792
-1925.9255 889.38489 3501.3247
-1889.6418 754.94312 3443.4104
-2016.2642 719.88287 3626.7095
-2024.0476 500.21976 3629.8623
-1974.3314 369.05118 3552.4868
-2024.5428 282.56595 3622.4653
-2088.0671 198.47281 3711.9419
-2146.333 108.42603 3793.5312
-2267.1992 30.378866 3966.8342
-1767.726 896.9079 3291.3069
-1886.5659 869.45459 3464.7214
-2027.9291 847.60614 3671.3982
-2045.9514 742.98364 3694.0171
-2014.3845 500.47409 3638.8054
-2014.823 282.72803 3631.4746
-2072.5491 196.63243 3713.0449
-2132.7078 107.4491 3798.0723
-2265.1853 32.758408 3989.7722
-1745.3506 887.70746 3279.5837
-1876.9756 869.89545 3473.4956
-2191.4951 957.35834 3941.5193
-2060.9194 758.07391 3741.3638
-2000.0696 609.41974 3646.0869
-1996.5822 497.04102 3636.8972
-1996.8832 388.216 3633.4358
-2010.9873 285.49207 3650.5955
-2066.2639 198.29176 3729.1682
-2117.3438 106.11989 3801.3586
-2260.1768 34.530334 4009.9062
-1841.78 964.3302 3445.0889
-1917.0428 903.38232 3554.8906
-2286.9966 1024.2914 4109.4414
-2278.8008 891.2287 4092.5603
-2048.2402 640.5318 3740.7764
-1967.1918 487.3389 3614.8215
-1995.2874 391.81564 3653.2454
-1997.4507 283.94012 3652.6606
-2054.6191 197.64891 3734.655
-2098.8821 103.45301 3797.1748
-2241.0396 32.171257 4006.1145
-1747.2637 902.18811 3323.0161
-1883.0471 886.98785 3525.8235
-2081.8774 901.5011 3824.0688
-2282.4983 900.16797 4124.4478
-2219.8281 738.88196 4025.0293
-1983.0757 500.22226 3662.2527
-1996.2035 396.84616 3678.3391
-1993.0085 286.29462 3669.7366
-2042.3384 196.99765 3740.5227
-2095.071 105.59257 3816.3303
-2228.9265 31.888121 4014.2302
-1701.141 875.12103 3273.4622
-1878.9434 890.96777 3542.0518
-1858.8134 766.24426 3507.4834
-2283.9465 907.88165 4153.2056
-2207.9636 738.612 4032.9255
-2002.934 515.20752 3716.2629
-1978.8739 393.71558 3675.8792
-2026.8114 195.18513 3741.4304
-2079.2466 103.95633 3817.3945
-2214.614 31.016737 4019.0049
-1780.0612 939.79858 3414.8364
-1833.5215 866.17896 3493.5066
-2216.5854 1001.0977 4079.1797
-2265.1689 903.32562 4149.6489
-2203.0142 741.78174 4049.9883
-2045.2461 541.23425 3803.9648
-1966.431 392.52667 3679.4509
-2010.8488 193.00427 3740.2249
-2062.9971 101.99785 3816.3286
-2198.8027 29.572655 4019.9746
-1734.4481 913.47821 3367.082
-1898.928 918.5979 3618.5916
-2283.9021 1052.178 4211.2051
-2206.853 876.01752 4087.7546
-2178.9536 735.24414 4040.5593
-2271.4741 660.15918 4179.5078
-1948.5448 389.3974 3677.2607
-1999.0085 192.74934 3748.0007
-2053.0137 102.42365 3827.5994
-2192.4417 31.080648 4038.3491
-1795.3074 965.47089 3482.491
-1926.3867 944.36053 3683.4136
-2284.5188 1059.8337 4237.8618
-2178.0322 865.33826 4067.9216
-2191.55 748.10889 4084.9915
-2273.3616 666.73907 4208.2314
-1962.4023 400.22162 3721.5396
-1999.0326 196.41779 3771.4087
-2049.613 104.59985 3846.2854
-2186.2793 32.325596 4054.1763
-1749.3574 938.43109 3432.6526
-1863.3523 907.64832 3608.2124
-2052.8208 917.41919 3901.8958
-2136.3931 847.28516 4029.1289
-2156.7959 735.33551 4057.251
-2260.896 666.48572 4216.3101
-1973.3114 410.07458 3763.0564
-1965.9946 296.41736 3748.2036
-1984.5446 195.02119 3773.7849
-2036.9651 104.02129 3852.1338
-2180.4309 33.85947 4072.1074
-1703.7155 911.40375 3382.571
-1943.9966 971.29858 3758.99
-1745.2937 724.38025 3441.7344
-1959.4474 747.57422 3776.3098
-2137.6394 731.1142 4053.6194
-2240.1284 662.04187 4211.3145
-1991.2886 423.28879 3816.1399
-1954.7998 296.19681 3755.4084
-1986.9272 199.8533 3802.5813
-2027.4825 104.47918 3862.9229
-2168.1165 33.616817 4080.0327
-1736.3734 943.2619 3456.415
-1739.656 834.9726 3458.3723
-1876.0731 816.30518 3671.9614
-2162.4199 876.91034 4123.2412
-1987.639 654.03082 3842.303
-2284.2998 690.65906 4309.0645
-2078.4346 468.64493 3979.3586
-1990.2059 205.07809 3833.0845
-2022.1722 106.3157 3880.3491
-1711.6245 931.89966 3439.1504
-1750.4327 849.51892 3498.1194
-2034.5599 927.29089 3949.4341
-2064.4805 824.5061 3993.7695
-2003.7861 669.18988 3893.3726
-2292.0344 700.91418 4349.8765
-2193.5234 527.41968 4189.1855
-2013.6321 107.12856 3892.7732
-1658.1912 898.20288 3374.1021
-1735.8798 845.83966 3496.2258
-1935.9293 869.20807 3815.1311
-2017.2124 802.21112 3942.5627
-2140.8682 752.08826 4137.8755
-2296.1897 709.08795 4383.7651
-2202.2964 536.79987 4229.5645
-1963.0487 312.94479 3842.6787
-1974.3615 97.670921 3854.6404
-1681.9487 924.09906 3435.8762
-1877.5074 954.36853 3750.0818
-1854.7197 822.96338 3709.9868
-2293.0627 978.74976 4416.6689
-2161.2478 770.64349 4199.7715
-2296.6909 716.1922 4415.334
-2206.3853 544.72064 4265.9531
-1982.8066 326.18655 3901.7205
-1982.8838 104.3158 3895.8035
-1606.6428 873.28772 3334.0752
-1807.5012 911.41626 3659.0706
-1904.7086 862.90912 3814.5813
-2096.5918 865.02167 4124.1455
-2218.79 809.70648 4319.7861
-2280.2883 713.88849 4416.4443
-2205.5869 549.79352 4291.6045
-2006.5994 340.75308 3965.0981
-1977.6541 216.70663 3915.124
-1984.21 108.24406 3922.8254
-1715.63 964.74799 3535.1084
-1829.9636 935.08673 3720.0518
-1884.707 856.81104 3806.9558
-2182.5811 925.56909 4292.5425
-2270.959 846.47852 4434.0576
-2268.2031 714.20172 4426.1792
-2209.0134 557.25647 4326.0068
-2007.9916 346.20096 3994.0732
-1992.5344 226.61366 3965.8926
-1961.0706 104.28394 3911.6431
-1622.8267 900.53845 3404.7625
-1613.6407 786.27142 3386.8909
-1724.9144 756.69757 3568.1536
-2164.0498 921.69208 4290.5117
-2276.7556 857.0824 4473.2422
-2254.0815 713.47375 4432.5791
-2226.3643 571.43298 4383.7061
-2029.5055 360.32727 4056.4656
-1986.7484 228.75851 3983.2534
-1653.085 931.6684 3477.6187
-1632.718 807.15698 3441.0706
-1666.7867 724.32727 3495.1863
-2092.5547 884.69879 4200.3213
-2172.5557 804.56146 4330.1558
-2284.7681 736.33704 4513.332
-2221.3333 575.07135 4404.9609
-2042.597 370.9863 4105.6489
-1997.104 237.11978 4027.4907
-1545.0781 854.82635 3319.501
-1622.6989 807.01324 3447.1323
-1814.4341 831.33142 3765.7209
-1968.8784 814.59991 4021.4995
-2160.7571 804.94684 4339.5352
-2260.4839 730.3811 4503.209
-2206.2241 573.92505 4409.564
-2044.3759 376.87973 4136.521
-1992.0798 239.66319 4046.5828
-1641.04 937.34937 3502.2236
-1653.3494 836.32336 3520.5002
-1726.9052 778.60364 3642.0151
-1927.5813 795.43433 3977.4651
-2131.0242 794.54523 4317.1343
-2245.8997 729.15936 4507.4688
-2194.8174 574.23315 4418.6841
-2066.6599 391.45694 4200.5796
-1999.6899 246.87796 4085.5012
-1624.2939 932.00342 3497.085
-1603.1615 806.74994 3458.8308
-1627.0361 717.33972 3497.0354
-1921.6934 798.95953 3994.2815
-2063.6921 762.53894 4232.2656
-2022.4637 616.87225 4159.7764
-2184.6228 575.49634 4431.5513
-2070.0027 398.22574 4234.9653
-1991.4221 248.26796 4099.5747
-1516.1595 854.4455 3336.7529
-1638.8721 840.95728 3544.3635
-1773.6838 825.63788 3772.4341
-1909.2983 798.80341 4001.6245
-1861.4349 651.5202 3917.47
-1979.1738 600.46979 4115.8721
-2173.6399 576.75757 4444.8311
-2067.51 402.82385 4261.4072
-1980.4185 248.88011 4110.6558
-1478.5197 831.99744 3294.282
-1629.4875 841.53424 3552.0562
-1766.4407 828.13391 3785.4604
-1860.1995 774.75104 3944.3655
-1809.3523 627.50781 3854.6658
-2202.0647 727.07251 4526.7085
-2154.5359 573.72565 4442.5493
-2073.4543 410.90323 4300.9517
-1986.8641 256.10098 4150.1143
-1570.6249 913.02826 3474.8181
-1621.5865 842.82385 3561.0103
-1710.6199 796.47491 3713.0566
-1875.9226 791.7912 3996.915
-1755.4014 601.80853 3786.2446
-2188.4175 726.40387 4532.4453
-2150.7971 577.89148 4464.9746
-2076.9678 417.69577 4335.0801
-2002.6476 266.82431 4204.5215
-1538.3922 895.05554 3442.0088
-1607.4822 839.9082 3560.5293
-1648.9835 760.87793 3630.8809
-1805.402 753.65765 3901.3647
-1835.9131 656.24469 3952.3645
-2162.468 719.45001 4518.4878
-2113.2969 565.7793 4430.6021
-2070.8176 420.58694 4354.4482
-2016.4502 277.15576 4257.7598
-1461.8993 840.62769 3329.6763
-1528.1266 787.25922 3444.0984
-1770.8633 853.4068 3868.0654
-1834.1843 779.28961 3977.0632
-1883.8179 691.36316 4061.9778
-2148.8511 718.79602 4524.1035
-2114.3179 572.35181 4461.3896
-2071.113 426.09055 4383.5732
-2007.297 278.19434 4269.8257
-1477.2877 861.36615 3380.7566
-1593.1672 844.60431 3583.8638
-1779.3784 867.74255 3911.0732
-1819.0226 777.33057 3979.155
-1982.6941 758.28851 4266.105
-2110.8855 705.56897 4490.2246
-2117.5315 580.82996 4499.8203
-2066.9072 430.28638 4408.4731
-2035.4106 294.73041 4350.9438
-1540.2013 920.80902 3515.8215
-1512.9811 791.26733 3465.6663
-1756.8177 859.75531 3897.8135
-1783.0555 761.28918 3942.6531
-1950.3445 746.24176 4238.1631
-1978.257 639.48553 4285.8345
-2114.6069 585.97144 4526.0435
-2064.2634 434.92874 4434.6729
-2048.3567 305.07538 4404.5137
-1458.558 861.93597 3393.4836
-1525.7 808.6933 3512.259
-1711.3307 835.35425 3843.2151
-1747.321 745.25659 3905.9717
-1940.6284 747.83844 4250.2427
-2124.7173 727.84125 4577.7637
-2105.8606 588.24817 4542.1196
-2060.5303 439.14471 4459.1914
-2017.8778 297.98611 4381.1494
-1524.8461 924.36438 3535.092
-1503.3127 798.80878 3494.7322
-1667.7136 811.62427 3789.689
-1785.426 777.64636 4000.2795
-1969.719 772.73895 4330.6567
-2103.4531 723.02747 4569.7554
-2094.9641 589.10242 4552.668
