# .PCD v0.7 - Point Cloud Data file format
VERSION 0.7
FIELDS x y z
SIZE 4 4 4
TYPE F F F
COUNT 1 1 1
WIDTH 1548
HEIGHT 1
VIEWPOINT 0 0 0 1 0 0 0
POINTS 1548
DATA ascii
-2441.8818 801.70251 2389.1011
-2381.9736 681.03827 2310.2144
-2279.6885 -636.55096 1895.9816
-2042.2644 468.33228 1981.4645
-2272.0244 -709.3598 1871.4612
-2103.365 408.77756 2015.9952
-2275.5435 -783.98572 1855.5454
-2456.9346 -892.81952 1975.1517
-2788.6497 -57.632984 2453.968
-2812.6489 -240.94571 2427.314
-2013.2787 878.58606 2073.2417
-2451.3354 906.02081 2437.387
-2422.4958 794.25256 2385.7603
-2359.752 672.92566 2304.0813
-2267.0679 -637.83313 1898.8724
-2036.4968 466.54797 1988.5597
-2278.2202 -713.05548 1889.051
-2209.0173 442.64865 2123.2444
-2280.1711 -787.78638 1871.8492
-2464.2532 -897.68945 1994.3347
-2771.0427 -244.57289 2408.7705
-2026.4185 886.95496 2098.2817
-2550.9165 1058.9463 2572.0393
-2408.5457 887.34192 2412.0295
-2401.7461 786.23285 2381.0229
-2337.583 664.84241 2297.8323
-2282.5554 -642.20679 1923.9906
-2039.2933 467.80847 2003.4495
-2274.949 -715.45776 1899.3271
-2263.5039 460.16446 2185.5596
-2275.333 -790.01782 1880.8928
-2462.0859 -900.72424 2006.3417
-2546.9243 1058.2543 2582.7915
-2355.2385 863.74158 2375.585
-2363.2556 770.63751 2358.7937
-2305.9402 653.05164 2281.895
-2281.1372 -644.58826 1935.1165
-2043.777 469.66537 2019.2852
-2284.4712 -719.50311 1919.0319
-2277.0623 -793.19629 1894.3827
-2464.9353 -904.57281 2021.5242
-2719.8333 23.858175 2465.4785
-2772.7803 -156.67447 2463.8071
-2529.8647 1051.2141 2582.7913
-2334.4373 855.24957 2371.0325
-2340.8743 761.97968 2352.9324
-2283.5361 644.9231 2275.8267
-2303.8052 -649.99011 1967.083
-2044.6873 470.30374 2033.3324
-2285.3923 -722.68518 1933.4951
-2278.0085 -796.60034 1908.7703
-2474.7249 -910.21997 2043.7584
-2722.3728 22.758682 2484.2517
-2764.6284 -159.14824 2473.6453
-1993.2186 873.10541 2103.3689
-2493.2791 1034.2694 2562.1875
-2339.1365 858.43164 2389.0371
-2320.6746 754.16547 2347.3784
-2256.2876 634.85266 2263.5195
-2043.354 470.12756 2043.9849
-2286.9739 -725.65466 1947.1133
-2281.1658 -800.05951 1923.5469
-2475.8591 -913.77972 2057.8137
-2724.1738 21.716398 2500.741
-2795.3076 -158.90977 2514.8286
-2439.3977 1115.1722 2552.9631
-2438.4492 1008.3434 2525.3044
-2295.6235 744.38483 2338.656
-2234.0068 626.78809 2257.1975
-2046.9821 471.76041 2060.7126
-2286.2129 -728.62769 1960.3843
-2299.292 472.08142 2273.2825
-2286.6194 -804.2832 1941.7052
-2488.5349 -920.08844 2082.6377
-2707.0515 18.155079 2502.5608
-2786.99 -161.40147 2524.7388
-2474.9749 1136.077 2603.1382
-2401.7651 991.396 2504.7124
-2268.2444 733.56982 2326.7219
-2212.1423 618.86047 2250.3311
-2282.426 -655.75317 1989.4521
-2043.8025 470.9758 2070.4692
-2282.6733 -731.04736 1970.7316
-2284.6252 -807.06403 1953.275
-2496.8376 -925.3606 2103.4026
-2526.6401 1165.6519 2668.8286
-2365.5896 974.61224 2483.4695
-3161.0557 1242.7159 3229.1838
-2239.9326 722.31091 2312.8901
-2186.5044 609.43427 2238.9536
-2314.5808 -662.10358 2028.5027
-2019.7769 462.7865 2059.9138
-2290.2407 -734.93237 1989.4381
-2281.4116 -809.4668 1963.1719
-2508.5186 -931.16339 2126.2366
-2750.2302 20.943443 2571.7102
-2931.1365 1386.3313 3086.8318
-2354.6558 970.56152 2487.5813
-2437.1819 908.42889 2542.7856
-2216.845 713.33075 2304.6489
-2110.5054 580.38312 2179.9673
-2288.1272 -737.586 2001.0779
-2285.4719 -813.33728 1979.7561
-2461.5305 430.21359 2443.4631
-2521.2129 -937.42444 2150.873
-2721.4829 16.034494 2562.4321
-2426.114 1114.8446 2600.0981
-2343.7163 966.5224 2491.6477
-2316.1748 853.46851 2439.4412
-2188.332 702.03638 2290.9583
-2076.4702 567.70581 2160.5769
-2314.7559 -667.72321 2055.8215
-2295.1545 -741.60541 2020.3202
-2286.3848 -816.67334 1993.875
-2455.7544 428.51834 2453.1707
-2530.7085 -943.07428 2173.1199
-2713.5945 13.730905 2571.5957
-2397.4873 1101.2225 2587.6182
-2303.02 947.61194 2466.8638
-2226.4653 813.03436 2366.4705
-2104.8284 667.27667 2224.0662
-2423.0293 -603.24652 2181.3811
-2078.1875 569.04181 2176.2085
-2399.8652 599.04211 2463.4541
-2292.5371 -744.37952 2032.4397
-2294.4954 -821.49628 2014.7578
-2455.2422 428.34158 2468.6975
-2527.4397 -946.31073 2185.9329
-2389.4429 1098.5692 2594.0071
-2280.5466 937.69446 2458.311
-2162.1809 784.2392 2316.1968
-2098.8293 665.54749 2230.9453
-2070.8745 566.79181 2181.6687
-2363.8345 586.68451 2442.9399
-2295.2024 -747.62421 2047.5166
-2289.5381 -823.63983 2023.4547
-2446.9419 425.95239 2475.238
-2363.9504 1086.547 2583.498
-2212.6011 904.93536 2404.6106
-2151.6016 780.4856 2319.6299
-2103.3411 668.38513 2248.9678
-2297.4124 -750.98779 2063.0664
-2296.3315 -828.10175 2042.7327
-2456.6545 428.72876 2499.7705
-2490.6533 344.54187 2508.5405
-2329.3828 1069.5778 2563.4993
-2145.0444 778.61932 2327.0552
-2081.9824 660.15448 2241.4102
-2384.9666 691.19861 2517.6448
-2299.5481 -754.35968 2078.6501
-2296.9604 -831.46906 2056.9775
-2440.7893 424.20059 2499.9963
-2473.1948 339.8963 2507.5178
-2300.54 1055.6084 2548.2368
-2210.0786 906.56073 2430.1501
-2526.7544 851.89783 2698.6624
-2386.3535 692.48853 2533.4614
-2300.4883 -757.39685 2092.5405
-2300.938 -835.28967 2073.3652
-2421.1191 418.59586 2495.6118
-2459.0239 336.10641 2508.6641
-2274.9106 1043.5863 2537.7275
-2226.6135 916.53973 2462.4626
-2524.0391 958.15326 2739.7947
-2514.6196 847.88617 2703.6318
-2375.9404 689.25793 2539.3328
-2376.7402 593.35388 2515.949
-2306.6091 -761.59796 2112.5076
-2304.0505 -839.34161 2090.6738
-2435.8442 422.84857 2526.1313
-2463.9023 337.10782 2529.7598
-2266.9856 1041.0269 2543.7444
-2195.1462 902.07971 2443.9797
-2520.7573 957.98926 2751.9482
-2466.9766 828.4953 2670.8604
-2413.9888 704.98145 2591.991
-2398.7485 601.73401 2552.2878
-2304.3992 -764.18054 2123.8677
-2300.3464 -841.7782 2100.7085
-2433.0061 422.08508 2538.0649
-2462.4429 336.54639 2543.1411
-2241.8472 1029.1675 2532.5884
-2507.7109 953.35626 2755.0491
-2550.6921 865.6828 2772.0623
-2402.468 701.31372 2596.1108
-2411.9314 607.02417 2581.0134
-2310.7397 -768.29449 2143.4888
-2302.2061 -845.453 2116.3477
-2397.5193 411.99484 2518.9126
-2442.1577 331.24146 2539.1697
-2112.3621 960.10925 2411.4607
-2095.2024 854.49896 2369.2361
-2502.6047 952.45923 2766.2866
-2404.4858 702.98511 2613.9021
-2398.9683 603.00476 2583.7349
-2308.0095 -770.99738 2155.3284
-2308.4792 -849.98602 2135.9102
-2394.2559 411.13876 2531.2156
-2445.8445 331.98935 2558.4875
-2392.1377 1007.0298 2694.5618
-2472.3875 939.79755 2751.4958
-2425.3333 712.09137 2650.9929
-2406.4824 606.31329 2607.0723
-2309.7017 -774.41785 2171.1069
-2301.2244 -851.97394 2143.8213
-2367.2869 403.51111 2520.0566
-2403.1213 321.0611 2532.3059
-2294.8511 -295.64099 2277.7449
-2183.5513 1002.9473 2516.0652
-2332.6394 978.52197 2647.9536
-2429.1089 920.99316 2722.8115
-2444.6465 720.62933 2686.8538
-2426.1345 613.98328 2642.9207
-2314.2903 -778.3266 2189.551
-2313.2847 -857.66882 2168.6853
-2397.293 412.20538 2565.521
-2405.3577 321.46951 2550.1895
-2371.2961 1108.1217 2731.0369
-2463.0046 1046.6461 2801.0029
-2428.4199 922.11804 2737.5063
-2434.667 717.59668 2691.9399
-2274.3638 -696.74731 2187.3
-2413.4604 610.08093 2645.1772
-2311.7844 -780.93121 2201.001
-2309.3013 -860.12299 2178.7913
-2403.7512 320.92953 2563.4873
-2339.0972 1092.626 2713.5149
-2962.4846 1303.604 3350.9844
-2892.5801 1142.406 3244.947
-2650.1292 803.67377 2932.5334
-2336.0547 -708.07062 2258.2734
-2309.8855 -784.00079 2214.6621
-2308.8933 -863.66083 2193.7183
-2204.8694 1020.5567 2583.5325
-2976.8948 1313.1117 3385.1753
-2997.5049 1193.6451 3374.6016
-3163.7224 1138.7721 3517.5872
-2324.155 -628.99982 2281.6384
-2903.9482 904.96674 3213.8411
-2364.292 -714.71808 2297.9604
-2385.9231 601.60406 2649.0474
-2310.2268 -787.09564 2228.7852
-2310.7168 -867.27185 2209.1062
-2211.6372 1026.3596 2606.2876
-2742.667 1195.5424 3152.803
-2943.813 1170.2466 3337.3623
-2402.4875 -556.05219 2389.9165
-2949.7051 1047.661 3312.1599
-2360.5906 -635.60602 2330.166
-2944.0322 922.01141 3275.2117
-2320.3782 -792.01746 2252.7073
-2312.0532 -871.00122 2224.9644
-2245.697 1047.4343 2659.9619
-2346.7 -389.58578 2395.4946
-2319.6907 981.03699 2713.9812
-2385.2627 908.21375 2758.3401
-2356.3552 -555.39532 2363.0696
-3145.8899 1134.4982 3541.9321
-2345.176 -636.97156 2331.8967
-2947.4243 924.65942 3299.5955
-2435.8127 620.99567 2734.4912
-2315.3213 -794.61591 2263.7725
-2315.8235 -875.43146 2243.9519
-2341.7769 -305.621 2411.8823
-2590.3389 1240.5778 3054.1799
-2342.3242 -391.52686 2405.8408
-2942.2241 1302.3711 3407.9197
-2335.5522 -474.12604 2378.584
-2662.4751 1041.0044 3073.3853
-2334.5295 -556.20764 2356.9836
-3188.7966 1154.7711 3607.8408
-2320.4314 -637.005 2323.1382
-2942.4866 923.89783 3313.1057
-2488.5212 640.64709 2805.6245
-2325.6802 -799.45795 2287.3777
-2318.8806 -879.35986 2260.7722
-2892.2749 1410.7515 3406.438
-2377.7993 -394.12961 2455.4878
-2956.9482 1312.3413 3444.2742
-2588.0444 1007.5693 3010.9089
-2939.6108 924.04688 3329.9763
-2436.3479 622.70483 2767.5173
-2320.9167 -801.95392 2298.0359
-2322.8892 -883.70221 2279.4106
-2344.71 35.1628 2531.3083
-2371.2852 -308.71072 2470.6418
-2875.3728 1404.1405 3407.7432
-2379.9719 -396.31421 2473.3523
-2929.5945 1300.7111 3434.5415
-2430.3862 934.56604 2856.6843
-2966.9358 936.21216 3379.3398
-2440.2759 624.92798 2788.5417
-2327.7341 -806.43933 2319.5007
-2326.8027 -888.05621 2298.0955
-2370.5107 38.140987 2573.26
-2366.927 -225.14127 2503.646
-2359.1375 -310.82047 2474.5454
-2511.2129 1204.074 3020.2417
-2366.3118 -398.26776 2475.8921
-2883.3225 1279.3246 3403.6133
-2358.2043 902.01788 2794.5129
-2328.1582 -728.2403 2355.6501
-2997.1465 826.19446 3401.3
-2324.2986 -809.19122 2331.5388
-2376.3352 504.68726 2712.4836
-2323.3726 -890.94427 2310.1001
-2386.3203 39.625282 2605.4651
-2345.4109 -141.90718 2519.804
-2350.5176 -227.59114 2503.2864
-2365.5222 -312.60376 2496.6328
-2871.4988 1407.6549 3443.782
-2254.0703 956.90265 2722.012
-2441.0525 943.19464 2902.8689
-2367.9285 -737.03131 2408.832
-2948.9807 809.87067 3370.0288
-2323.7009 -812.4455 2346.2998
-2324.2275 -894.72266 2326.1567
-2379.9495 409.06833 2708.5054
-2331.0352 30.581882 2565.2415
-2342.0115 -55.876358 2554.3479
-2338.9397 -143.80655 2529.2385
-2873.1729 1411.4879 3466.0444
-2893.281 1289.4547 3455.3442
-2723.4172 1079.6106 3234.1648
-2361.3662 -739.27014 2418.2974
-2959.0178 814.52704 3401.2815
-2321.5928 -815.45276 2359.7158
-2868.9988 665.20636 3274.4968
-2327.8862 -899.10413 2344.9524
-2355.0415 33.289253 2606.0308
-2363.395 -54.542706 2592.2598
-3059.7771 -196.834 3247.2473
-2857.4167 1405.6083 3468.6106
-2893.6912 1292.2236 3476.3442
-2958.2566 1193.7552 3516.0627
-2311.7568 -735.26648 2386.3823
-2800.6697 758.44763 3249.4624
-2325.167 -819.47595 2378.6211
-2855.458 661.50464 3279.8042
-2327.1399 -902.60022 2359.7166
-2361.3469 309.49033 2698.2271
-2361.0579 216.22034 2674.5171
-2348.1597 121.43591 2637.8425
-2353.947 32.287064 2621.2324
-2856.1748 -105.04584 3088.0312
-3081.9834 -197.8614 3290.1091
-2885.792 1290.5775 3486.9033
-2850.0979 1144.1788 3414.3044
-2312.8464 -738.39868 2402.1599
-2562.4385 673.37793 3007.2593
-2330.5227 -823.65344 2398.5012
-2845.0913 658.80725 3287.4011
-2333.9316 -907.48969 2380.8723
-2948.1282 573.11151 3369.3391
-2368.5476 311.30548 2721.665
-2349.3569 213.42654 2677.8198
-2336.4646 118.78824 2641.1118
-2823.5334 -4.5577717 3099.1873
-2866.6567 -105.75825 3117.074
-3063.8689 -200.68791 3291.2512
-2828.9182 1395.4141 3475.8489
-2877.3159 1288.8009 3497.9807
-2354.2014 909.00891 2874.0706
-2302.0149 -739.96814 2407.3091
-2391.6912 612.625 2837.5327
-2335.3311 -827.95599 2418.8792
-2836.8079 656.84119 3298.376
-2330.1694 -910.39893 2392.9639
-2946.2017 572.93549 3387.8389
-2926.072 451.50906 3337.0122
-2821.9766 99.354584 3143.4143
-2829.2048 -5.2187247 3124.4609
-2866.719 -107.39851 3136.7092
-3020.0383 -204.79869 3267.1658
-2833.4951 1401.1853 3502.906
-2865.7712 1285.6029 3506.7146
-2971.3054 1206.8617 3594.2847
-3149.3076 1154.6665 3762.2283
-2270.8433 -738.67969 2393.3669
-2360.8271 602.45142 2821.6104
-2970.0015 700.84344 3465.9121
-2340.1396 -916.44159 2419.2188
-2935.6719 570.32739 3398.2261
-2953.1062 458.34647 3387.8438
-2882.2058 327.98245 3282.9993
-2771.5217 196.34108 3137.3699
-2829.6543 99.453186 3172.1716
-2825.9434 -6.9582648 3141.6807
-2867.5337 -109.07116 3158.345
-3030.1648 -206.51659 3299.2932
-2306.2913 -324.82938 2533.3281
-2779.7883 1373.9855 3461.1111
-2967.3447 -426.16641 3201.1353
-2864.6606 1287.7168 3526.321
-3021.4343 1233.2993 3673.1196
-2264.3059 -740.849 2402.5579
-2342.217 596.6651 2818.0955
-3009.7146 714.5354 3530.8848
-2926.9875 568.24548 3409.4846
-2944.3789 456.20624 3399.1565
-3027.145 358.97925 3459.4592
-2813.5537 203.3116 3201.7627
-2832.2615 98.86676 3194.6892
-2825.8914 -8.2600508 3161.2744
-2854.9697 -111.69865 3165.0674
-3024.0273 -208.86548 3313.7058
-2274.5063 -327.09512 2516.8745
-2418.3887 1172.8083 3057.1873
-3012.2219 -429.70496 3266.2976
-2864.0137 1289.9587 3545.4165
-2943.8037 -533.47662 3169.8027
-3027.9424 1238.7351 3701.3394
-2960.3083 -639.49988 3160.1794
-2992.0623 -748.63556 3165.4751
-2337.2524 -754.85223 2489.7173
-2883.2927 793.79126 3440.7051
-2964.1479 -953.48938 3085.3066
-2903.2427 680.7168 3432.8589
-2904.3062 562.12836 3404.1831
-2936.1736 454.20877 3409.9009
-3042.8608 362.09021 3496.6213
-2797.6401 199.8533 3203.4114
-2839.3909 98.997169 3221.0784
-2819.4419 -10.201591 3173.1245
-2848.4487 -113.75336 3176.9944
-2609.8086 -229.16302 2902.3157
-2908.3972 -321.75278 3186.5
-2582.4709 1268.3708 3268.7429
-3012.9854 -432.47995 3287.8271
-2860.27 1290.7728 3562.1931
-2962.988 -537.56952 3209.6443
-3027.5049 1241.009 3722.9717
-2993.5427 -645.79407 3214.1335
-2994.3901 -752.66321 3188.1846
-2607.6936 -799.31226 2775.8198
-2989.4595 833.52557 3581.2615
-3004.6553 -965.32904 3145.4336
-2328.9058 494.74716 2811.821
-3000.0845 -1070.467 3114.3047
-3003.4612 591.12579 3534.9182
-2918.0774 449.74295 3410.9609
-2994.9336 351.46445 3465.9199
-2787.9392 197.49547 3212.8035
-2832.2727 97.002266 3233.5093
-2812.4026 -12.272531 3185.4905
-2298.3154 -244.57663 2594.5317
-3003.7629 -323.09094 3305.7317
-2489.0784 1218.2352 3176.5151
-2993.4019 -434.63489 3287.2456
-2844.7322 1285.2861 3564.0295
-2967.208 -540.69904 3233.3201
-2985.271 1223.0217 3694.8772
-2978.1455 -647.6673 3217.8691
-2990.1831 -755.71246 3203.2935
-2636.9287 -807.21954 2822.1816
-3137.9148 888.66162 3770.0403
-3006.0552 -969.79315 3166.0972
-3005.7241 -1076.2119 3139.0388
-2995.823 469.39536 3516.699
-2974.4587 346.79468 3463.6572
-2802.9407 199.6315 3247.9502
-2825.658 95.14373 3245.3984
-2789.5237 -16.019526 3179.8325
-2967.6516 -325.72412 3287.7458
-2407.2927 1174.8566 3099.0767
-2960.2324 -436.7431 3274.6934
-2834.2158 1282.762 3574.0854
-2922.939 -541.41968 3209.2908
-2924.7004 1196.4291 3647.3508
-2949.0627 -648.67621 3209.7773
-2969.3923 -757.16003 3203.877
-2329.1785 -763.45459 2530.5908
-3150.7737 894.76312 3808.8245
-2971.1741 -967.99774 3152.8247
-2904.1431 683.55273 3497.0466
-2993.2502 -1078.5624 3148.2336
-2313.3237 393.21304 2804.2874
-3008.5291 472.71936 3553.6465
-2923.6223 335.56741 3430.1372
-2771.1282 193.28487 3234.428
-2770.6948 86.183708 3207.0898
-2233.2117 -165.48076 2579.9985
-3099.625 -213.85902 3476.8879
-2803.1565 1402.8778 3592.0872
-2820.5618 1278.4542 3579.2344
-2244.0481 -505.0177 2522.9092
-2909.4741 1191.5846 3651.3042
-2241.3186 -753.05145 2457.7729
-3138.4856 891.67163 3817.8191
-2920.2434 -962.86151 3121.9221
-2928.7744 692.47882 3546.4094
-2978.5413 -1080.1449 3154.0354
-2943.812 339.68192 3473.7361
-2759.9937 190.70799 3242.2683
-2230.5742 -166.99646 2593.5249
-3098.3452 -216.04761 3497.4077
-2799.2002 1403.9375 3608.7207
-2833.6558 1288.2495 3616.293
-2918.8796 1198.6957 3684.363
-3204.1577 1194.145 3986.3162
-2216.4814 -752.36127 2448.4192
-3113.4319 883.94629 3812.0708
-2919.6956 690.44232 3557.6682
-2963.8259 -1081.7129 3159.7788
-2955.1379 579.24463 3567.416
-2300.8621 294.9101 2800.9141
-2280.9341 196.64963 2755.0801
-2252.4668 99.04866 2700.3391
-2824.2239 -16.086746 3278.9089
-2234.6572 -168.0052 2614.3916
-2978.3718 -223.12057 3390.7227
-2143.7456 1032.9041 2834.5925
-2844.7119 1296.8713 3650.0186
-2998.6953 1239.8983 3800.2944
-3190.9827 1190.5226 3993.415
-2174.166 -748.6778 2419.9851
-3110.6382 884.27484 3830.687
-2912.4387 688.9668 3569.8389
-2978.8721 586.62476 3615.1575
-2273.0632 194.79584 2762.4663
-2823.2427 91.061638 3324.4531
-2826.7874 -17.011032 3301.1191
-2212.053 -170.93506 2605.4736
-2981.9546 -224.92679 3414.7781
-2779.717 1399.3633 3626.9473
-2839.3315 1297.0349 3665.385
-2879.0564 1184.4208 3679.8481
-3175.9241 1186.2131 3999.584
-2904.5571 687.35931 3582.5347
-2970.7979 584.87604 3628.0593
-2986.2275 467.75305 3615.2615
-2842.1802 317.17746 3422.5483
-2820.8992 199.9823 3370.25
-2830.4004 91.173531 3353.1628
-2831.3625 -17.786428 3326.853
-2199.8496 -173.14474 2608.6621
-3003.7932 -226.12732 3460.0215
-2764.8975 1394.2974 3630.4473
-2826.6616 1293.3727 3671.9688
-2850.3669 1173.0903 3667.4409
-3152.2129 1178.0652 3995.377
-2998.8494 846.31799 3746.1428
-2894.0774 684.92181 3592.2478
-2962.6738 583.13165 3640.9458
-2970.2886 463.94577 3619.2788
-2935.2456 337.03232 3549.5039
-2815.9639 198.55128 3385.6543
-2832.1045 90.505127 3376.0107
-2822.4539 -20.024303 3337.8296
-2183.6172 -175.63838 2607.3662
-3002.4338 -228.27084 3480.3638
-2761.9253 1396.0493 3648.4961
-2836.7874 1301.8209 3706.386
-2888.6365 1194.4268 3735.9082
-2150.6133 -592.47241 2483.7256
-3178.9951 1192.4736 4051.6558
-2902.6201 688.73328 3624.2458
-2941.678 577.68286 3638.9199
-2941.418 456.89645 3608.3274
-2923.293 334.29034 3557.822
-2816.2173 198.05981 3407.0181
-2838.9907 90.583763 3404.8528
-2810.8442 -22.543915 3345.8115
-2191.5115 -176.35422 2632.6841
-2983.4849 -231.09631 3481.5081
-2745.2712 1389.7747 3648.4702
-2832.9673 1302.7483 3722.7151
-2888.3645 1196.8765 3756.8447
-3170.782 912.25214 3994.8496
-2898.9365 688.50861 3640.8711
-2926.428 573.87445 3642.2275
-2926.123 453.26822 3611.6316
-2909.3123 331.13556 3562.5681
-2833.9702 200.73322 3447.3035
-2830.4902 88.51667 3415.3333
-2809.0747 -23.92252 3363.6575
-2197.0679 -177.17584 2654.679
-2981.2598 -233.15015 3499.8083
-2736.9226 1388.6891 3661.1416
-2829.1108 1304.0446 3741.5806
-2918.2195 1214.4275 3817.3752
-2867.4993 679.31519 3627.1755
-2904.8923 568.33325 3640.5718
-2887.7974 443.87766 3590.491
-2863.0549 321.03671 3532.3821
-2834.6917 200.31299 3470.8101
-2828.6758 87.314758 3435.8237
-2806.071 -25.568359 3382.5701
-2181.6394 -179.65814 2655.2117
-2968.377 -235.83542 3508.8247
-2728.4849 1387.1868 3671.3015
-2809.6963 1296.7253 3738.71
-2928.4976 1222.1567 3851.8115
-3171.7812 1196.7374 4115.3564
-2868.7891 680.75885 3649.7349
-2893.4722 565.66302 3648.2458
-2864.894 438.35852 3584.5991
-2843.999 316.82089 3530.9241
-2835.1689 199.9164 3491.7971
-2831.863 86.930916 3459.783
-2793.5947 -28.081789 3388.47
-2180.4106 -180.96655 2669.7874
-2968.6802 -237.79266 3530.1125
-2716.5381 1384.0812 3679.5076
-2810.4734 1300.5624 3763.4712
-2901.4099 1211.9014 3842.7949
-3127.856 1179.7614 4087.6489
-2106.2122 -679.74976 2480.0791
-2843.7192 673.68182 3643.3364
-2912.4614 571.90741 3694.5825
-2875.3159 441.29044 3620.3264
-2844.3796 316.78687 3554.5391
-2834.3716 199.24677 3513.8735
-2833.7578 86.270203 3484.8459
-2779.9482 -30.844845 3395.3652
-2164.9751 -183.425 2670.2256
-2961.0161 -240.27379 3545.0601
-2714.4551 1386.5195 3698.9949
-2811.7214 1304.5212 3787.7488
-2863.0452 1195.9282 3818.1924
-3160.9802 1197.3143 4153.4067
-2142.4734 -687.60199 2535.8027
-2884.2529 688.15265 3714.6499
-2892.7263 566.90265 3693.7568
-2891.2383 445.61499 3661.6584
-2818.3149 311.08798 3545.949
-2826.3083 197.32278 3526.3943
-2825.7139 84.255394 3497.3625
-2510.332 -60.652546 3106.5352
-2160.5564 -185.02077 2682.2029
-2959.1985 -242.42651 3565.4421
-2710.5393 1387.7307 3715.0293
-2801.6848 1302.2877 3796.6519
-2845.6914 1190.1302 3818.2747
-3164.2839 1201.3567 4181.313
-3010.9224 731.00378 3889.927
-2882.4224 564.60968 3702.8972
-2884.7415 444.28299 3675.3367
-2813.3625 309.94711 3560.9324
-2823.9421 196.45099 3544.4255
-2819.5137 82.560326 3510.8484
-2171.1931 -97.526924 2732.6384
-2181.4849 -184.7697 2722.3906
-2949.9932 -244.72255 3576.2812
-2715.2397 1394.2063 3743.4592
-2793.374 1301.1918 3809.0315
-2864.5718 1202.4133 3865.2651
-3146.3674 1196.0081 4184.2935
-2081.0649 -765.04663 2480.2744
-3107.4778 764.10425 4031.7092
-2891.52 568.01678 3736.8025
-2888.9521 445.69012 3703.1975
-2810.2998 309.22253 3579.4746
-2826.033 196.3555 3569.0659
-2811.3711 80.553246 3523.3367
-2154.9009 -100.22558 2731.0435
-2167.7271 -187.01851 2723.8669
-2949.3301 -246.83517 3598.1904
-2693.8635 1385.3109 3737.196
-2791.4553 1303.3793 3828.3528
-2882.6445 1214.2075 3910.3652
-3153.0774 1201.6666 4216.7656
-2089.3125 -769.52875 2504.7405
-3081.5051 756.75488 4023.25
-2868.6111 562.09253 3730.7407
-2887.3472 445.62686 3722.9751
-2815.3694 310.26297 3606.636
-2828.6074 196.38091 3593.2253
-2772.8738 74.325478 3498.8171
-2356.8135 -79.981667 2983.8796
-2162.2739 -188.6104 2733.958
-2942.6384 -249.03777 3612.03
-2693.2136 1388.9609 3760.1987
-2778.9402 1300.2719 3836.7366
-2870.9578 1211.6552 3920.542
-3132.0396 1195.1075 4217.2329
-2075.2114 -770.51752 2506.4841
-3088.7949 760.56201 4058.4172
-2875.6255 564.98389 3763.7351
-2893.199 447.50912 3754.522
-2816.5698 310.48145 3631.8567
-2823.4827 195.00041 3610.8596
-2783.3933 74.927368 3534.5508
-2829.9211 -31.698786 3561.4224
-2154.5293 -190.49672 2743.3506
-2929.4136 -251.68369 3620.8936
-2680.4458 1385.3446 3766.272
-2778.6035 1303.5833 3859.5911
-2818.7222 1188.7979 3877.3254
-2419.5508 874.25909 3335.5674
-2028.1747 -686.40637 2490.3372
-2049.6523 -769.29285 2494.4553
-3072.0105 756.35968 4062.5872
-2881.8496 567.62817 3794.7466
-2893.2615 447.92691 3777.9609
-2823.2932 311.90411 3662.7126
-2830.3137 195.77664 3641.7312
-2812.2217 78.147095 3591.2517
-2835.6777 -32.339222 3590.7429
-2845.9775 -144.90195 3574.4573
-2928.499 -253.80438 3642.8367
-2674.5105 1385.7634 3781.2957
-2771.2263 1303.1259 3873.4353
-2370.9463 968.84778 3322.5007
-2389.8252 863.02386 3317.9939
-1998.8667 -685.15881 2473.5244
-2046.6538 -772.01501 2507.5085
-3030.761 744.0614 4036.1018
-2886.6865 569.89441 3824.2979
-2894.46 448.65195 3802.9653
-2817.3044 310.60971 3678.3108
-2829.3987 195.1899 3663.4802
-2817.8091 78.101845 3620.594
-2836.1577 -33.527599 3614.0117
-2849.0657 -146.3398 3600.7852
-2920.9993 -256.13663 3657.1941
-2299.5396 1168.6501 3307.3909
-2764.3994 1302.8005 3886.7512
-1994.7682 -528.62738 2523.9998
-2390.0151 980.9118 3366.5271
-2406.8035 872.94275 3359.1621
-2033.524 -772.75946 2508.2786
-3028.1357 744.50366 4056.3665
-2898.1624 574.07703 3861.0491
-2876.3071 444.47284 3802.8931
-2818.1223 310.79257 3701.0654
-2832.7822 195.39795 3689.3398
-2820.0566 77.639076 3644.8716
-2826.9238 -35.647789 3624.5261
-2848.7905 -147.91483 3622.0449
-2916.6599 -258.24994 3674.052
-2672.1079 1392.0804 3822.8823
-2755.7654 1301.7238 3899.0596
-2388.5627 982.94049 3385.3101
-1947.5104 -605.31403 2466.0039
-2393.6194 869.27435 3362.7834
-1943.8464 -759.89661 2422.9146
-3004.1077 737.9361 4051.0884
-2873.2581 567.70276 3853.8162
-2862.4958 441.43204 3809.4404
-2821.957 311.63913 3729.0027
-2840.4458 196.34991 3721.9377
-2816.5085 76.327019 3663.5632
-2827.218 -36.846455 3647.8376
-2852.9133 -149.29074 3650
-2923.1921 -260.14954 3705.2307
-2669.877 1395.0419 3844.4609
-2753.3381 1304.2688 3920.9651
-2350.5742 966.85016 3357.3408
-2365.8289 859.06519 3348.4595
-2398.4624 758.98157 3362.1775
-1932.7253 -761.22186 2427.1011
-2939.5376 717.96356 3995.4177
-2883.2166 571.59344 3891.7344
-2851.7363 439.20776 3821.1008
-2827.5103 312.8732 3760.6128
-2836.0459 195.15793 3741.25
-2817.292 75.583015 3688.9644
-2817.8936 -39.095665 3660.9265
-2835.8513 -152.15579 3653.937
-2907.1174 -262.85013 3710.9431
-2658.6189 1392.245 3851.4424
-2750.8987 1306.4432 3940.3428
-2319.5952 953.93274 3335.9124
-1892.4332 -604.32794 2434.1406
-2354.3965 856.08154 3353.0195
-2402.2522 762.4502 3386.8042
-2478.668 678.80316 3457.2637
-2906.7646 708.40302 3976.9004
-2884.5217 572.87543 3916.3081
-2840.9734 436.94562 3830.1233
-2841.5908 315.95105 3800.5273
-2837.8091 195.10985 3765.7058
-2825.4854 75.965637 3721.0891
-2814.8262 -40.56015 3679.1223
-2813.697 -155.15334 3649.0408
-2907.6602 -264.81952 3733.9727
-2638.8997 1384.6687 3848.2681
-2736.4001 1302.2588 3945.0107
-2315.8276 954.83948 3351.4946
-2334.2725 849.25208 3347.2339
-2393.6074 760.88898 3396.5273
-2428.1104 661.53485 3413.1655
-2854.2417 692.33081 3933.9988
-2887.4951 574.72467 3944.5554
-2836.8892 436.42252 3848.9492
-2840.0308 315.68558 3822.4629
-2836.3367 194.48033 3787.6289
-2820.3708 74.459137 3738.3152
-2821.1233 -41.134827 3710.2427
-2816.2998 -156.61882 3675.4832
-2906.1709 -266.96899 3756.0334
-2631.4985 1384.4338 3861.7275
-2723.0276 1298.7097 3951.1526
-1886.8398 -531.94006 2478.95
-2301.6763 950.54138 3353.2795
-2315.3586 842.97949 3342.896
-1855.8357 -681.25293 2403.9482
-2380.2339 757.37549 3400.053
-2429.9839 663.91254 3436.9102
-2854.6689 693.93616 3959.0701
-2884.2859 574.7865 3965.0913
-2842.4731 438.3736 3880.2263
-2839.5947 315.67783 3845.9807
-2837.2354 194.28094 3812.6892
-2823.9058 74.161186 3766.4248
-2814.7124 -42.998711 3725.9143
-2832.6492 -157.20657 3719.0205
-2903.3062 -269.16055 3776.5776
-2636.2849 1391.5128 3891.9314
-2281.825 943.3725 3347.3208
-1859.4718 -608.25873 2443.3035
-2303.4209 839.92822 3347.728
-1895.4768 -690.12219 2466.6924
-2356.3433 749.47791 3389.5957
-2001.2462 -786.6767 2571.4792
-2410.4839 658.28784 3432.7646
-2807.262 679.56311 3921.9822
-2890.6179 577.6759 3998.0981
-2841.8279 438.76459 3903.7769
-2841.4971 316.189 3872.6477
-2838.0134 194.07207 3837.7886
-2822.3333 73.162323 3788.3577
-2818.2351 -43.852135 3754.0291
-2846.2502 -157.9874 3759.5845
-2905.4011 -271.21945 3803.3379
-3059.7336 -388.50351 3962.1531
-2625.4072 1389.2842 3900.8228
-1835.0302 -532.32428 2449.1138
-2301.8408 956.39758 3395.1953
-1963.9426 -623.1358 2584.5706
-2290.3235 836.35553 3350.9717
-1987.2703 -707.11212 2592.1526
-2345.3376 746.974 3396.0884
-2386.3201 650.91272 3422.3096
-2390.4709 541.37531 3399.9482
-2893.1843 579.48773 4026.4983
-2849.541 441.30191 3938.2969
-2845.7068 317.21341 3902.488
-2846.0425 195.15239 3872.3054
-2825.6045 72.840561 3816.564
-2821.6147 -44.719589 3782.2009
-2852.1169 -159.27206 3790.9238
-2898.5464 -273.52295 3819.2712
-3067.5056 -391.26013 3997.1296
-2621.7341 1391.1646 3918.3682
-2273.4102 944.74915 3376.3875
-1929.2218 -621.58154 2558.822
-2280.0576 833.96729 3356.8296
-2331.3828 743.13019 3397.436
-2375.6877 648.54413 3428.4353
-2399.9441 545.8053 3432.6353
-2911.8181 585.99933 4074.7451
-2845.6777 440.88345 3956.7078
-2846.7771 317.57132 3927.1587
-2838.6292 193.5416 3886.0115
-2831.8535 72.977547 3847.428
-2820.54 -45.965809 3803.6472
-2843.5007 -161.3783 3803.0718
-2901.0701 -275.46381 3845.561
-3044.2876 -393.55594 3992.8005
-2550.2578 1352.5328 3842.8835
-2219.7166 920.38562 3323.8286
-2268.0964 830.94849 3361.5334
-2306.4873 734.81586 3385.1472
-2360.9785 644.74799 3430.2888
-2386.2759 542.56647 3436.1157
-3130.803 651.69153 4388.6582
-2850.6882 442.77805 3988.2124
-2854.3413 319.35052 3961.8184
-2843.9285 194.16341 3917.5054
-2828.6956 71.78186 3867.9043
-2821.187 -47.103153 3828.7788
-2842.8887 -163.0721 3826.6824
-2902.7976 -277.55154 3872.4382
-3027.9587 -396.05396 3998.2708
-2601.9819 1388.0613 3939.1013
-2210.208 918.47388 3331.4565
-2236.7712 818.93457 3339.7332
-2298.9504 733.8078 3396.1631
-2341.6221 639.20428 3425.821
-2371.4316 538.9444 3437.9761
-2457.0034 453.97574 3523.7012
-2863.9158 446.79095 4030.7974
-2847.248 317.9931 3977.675
-2846.6345 194.34033 3945.9199
-2830.3354 71.254257 3894.6892
-2819.2444 -48.495514 3850.8086
-2840.9194 -164.85034 3848.7578
-2899.4065 -279.77274 3893.1033
-3006.6204 -398.47507 3997.4407
-2066.7971 1068.86 3208.7092
-2208.5208 920.58038 3349.9338
-2235.0764 820.7124 3358.3328
-2287.9314 731.35187 3402.4666
-2325.7903 635.00177 3425.9731
-2355.4268 534.94336 3438.2029
-2440.6167 450.13614 3524.1758
-2876.9229 450.77536 4073.4978
-2856.9153 320.26013 4015.6089
-2846.7786 194.07896 3971.2314
-2812.335 68.040642 3896.2942
-2825.7864 -49.043198 3883.8855
-2842.5481 -166.40828 3875.573
-2892.1978 -282.08585 3909.0776
-2989.0562 -400.92194 4001.2097
-2326.5088 1104.9745 3565.8142
-2185.5352 911.81268 3338.835
-2215.2173 814.03699 3351.9348
-2278.0376 729.38837 3410.3018
-2318.0593 633.88678 3437.0698
-2337.1077 530.17108 3435.2109
-2419.5383 444.91971 3518.2686
-2889.7063 454.73077 4116.314
-2858.0032 320.69879 4042.5691
-2850.4175 194.44424 4001.3237
-2833.2173 70.166031 3948.3948
-2827.2666 -50.091805 3910.7234
-2846.4998 -167.82898 3905.5854
-2897.2764 -284.11224 3940.7695
-2971.4971 -403.35162 4004.9109
-2170.4146 907.07147 3338.552
-2197.6631 808.43927 3348.5793
-2253.321 721.16052 3397.6694
-2302.2339 629.71124 3437.1152
-2325.7971 527.77704 3441.6165
-2392.6516 437.98962 3504.3523
-2899.9006 458.05316 4156.0757
-2872.0791 323.95285 4087.0066
-2864.7197 196.69418 4045.7383
-2856.2363 72.581383 4003.8252
-2828.6133 -51.151577 3937.6069
-2849.0732 -169.33804 3934.0784
-2893.574 -286.34833 3961.4958
-2967.5471 -405.96548 4025.8335
-2008.297 1044.4172 3185.1643
-2157.5271 903.48688 3341.3369
-2185.7505 805.49231 3352.9995
-2236.6299 716.33411 3395.9465
-2284.1338 624.6781 3433.9365
-2305.2107 522.25562 3435.3196
-2381.0515 435.5994 3510.9229
-2886.3184 455.32178 4164.1855
-2875.2266 324.87216 4117.2705
-2879.9802 199.12286 4091.8655
-2864.488 72.979431 4040.3828
-2824.9731 -52.697384 3958.1931
-2846.6206 -171.15015 3956.2925
-2886.0935 -288.66806 3977.4983
-2962.2639 -408.56375 4045.1965
-2024.5433 1057.8795 3227.4778
-2145.1748 900.01807 3343.6589
-2177.7214 804.2373 3361.6792
-2219.3865 711.15143 3392.1475
-2274.6226 622.82666 3441.3262
-2293.314 519.60632 3439.5972
-2368.8525 432.98627 3515.4133
-2685.5527 404.64297 3917.156
-2884.8337 327.18771 4155.0127
-2883.7671 199.5625 4121.6626
-2870.8396 73.162941 4073.3076
-2830.3748 -53.289909 3989.3906
-2849.6084 -172.54813 3984.343
-2893.8965 -290.54205 4011.9563
-2961.2837 -411.08585 4068.7505
-2016.5062 1056.7743 3236.0669
-2130.0933 895.32056 3343.2043
-2166.8955 801.8338 3367.6018
-2220.7617 714.03998 3415.5969
-2256.5662 617.82672 3438.0154
-2280.8467 516.85815 3444.2698
-2347.9502 427.85657 3509.1611
-2418.894 337.04434 3578.5886
-2890.0173 328.58353 4188.5967
-2876.0215 197.97835 4137.6948
-2870.3521 72.381752 4098.8657
-2832.5291 -54.264584 4017.9963
-2846.927 -174.37457 4006.6152
-2895.9563 -292.67035 4040.6855
-2954.5884 -413.66879 4086.554
-1989.7958 1044.4337 3218.5088
-2141.6763 1019.2449 3410.8853
-2125.448 896.21539 3358.8386
-2151.0818 797.24091 3367.5798
-2209.1416 711.54333 3422.0649
-2247.0476 616.21472 3447.7749
-2263.2307 512.4552 3442.9551
-2338.0703 426.08038 3519.2214
-2419.2075 337.85449 3603.2634
-2884.9329 327.80072 4209.9951
-2888.7993 199.9957 4183.0391
-2865.4675 70.972717 4120.1978
-2829.0515 -55.847893 4040.793
-2850.6768 -175.92097 4039.0059
-2895.9524 -294.97018 4068.4124
-1972.205 1037.4612 3212.9324
-2054.4485 973.41272 3305.1768
-2114.7244 893.80975 3364.6003
-2140.2419 794.85962 3373.4143
-2190.2441 705.81537 3416.9465
-2232.4158 612.54895 3449.1118
-2253.0452 510.51111 3450.7163
-2321.835 422.36334 3519.2107
-2410.7183 336.38715 3614.7039
-2892.144 329.67392 4246.895
-2883.1846 198.81364 4202.3218
-2870.6697 70.981041 4153.8252
-2824.9602 -57.418785 4061.4814
-2857.3525 -177.2128 4074.1252
-2890.4766 -297.25977 4087.6709
-1955.1627 1030.6039 3206.8972
-2133.5266 1021.754 3440.9639
-2103.4358 890.94836 3368.3416
-2131.0286 793.1123 3380.3906
-2180.8406 704.03198 3424.0671
-2214.9856 607.70636 3445.1753
-2238.8625 507.13098 3451.6157
-2307.3486 419.11551 3520.2971
-2393.5422 332.66245 3612.8284
-2896.385 330.90717 4278.519
-2885.2339 198.99875 4230.7104
-2878.771 71.426155 4190.1968
-2806.0088 -60.344429 4060.804
-2856.1775 -178.86584 4097.5796
-2896.4446 -299.2178 4120.7803
-2031.4863 1081.7965 3340.8191
-2098.0986 891.38873 3381.9507
-2117.9666 789.70618 3382.9763
-2166.4316 700.2453 3425.1921
-2203.7483 605.36768 3451.1877
-2236.5596 507.91455 3470.5295
-2296.856 417.13818 3528.1924
-2399.9644 335.06177 3645.116
-2884.6724 328.73196 4289.8149
-2887.6016 199.24281 4261.2915
-2882.4456 71.239502 4222.3604
-2756.7808 -66.21183 4020.3823
-2863.7144 -180.12267 4134.4341
-2901.5273 -301.32791 4154.4966
-2030.451 1085.2487 3360.4509
-2089.4685 890.13599 3390.7944
-2109.2681 788.39398 3391.8877
-2158.6504 699.32703 3435.8564
-2189.1509 601.74573 3452.3521
-2216.1545 502.51657 3463.7429
-2285.2004 414.82837 3534.4458
-2371.832 328.58466 3629.1108
-2895.634 200.49272 4299.9937
-2898.8486 72.7771 4272.3237
-2830.4995 -60.332848 4147.2642
-2865.1226 -181.73119 4163.3286
-2902.8547 -303.51627 4183.4688
-2017.8223 1081.5289 3362.7744
-2075.4412 886.07019 3391.6621
-2118.9993 795.92102 3427.9263
-2145.3359 696.03894 3438.4902
-2176.7852 598.99841 3456.6731
-2192.4441 495.98657 3452.0305
-2269.0022 411.16931 3534.2056
-2335.8232 320.08118 3601.6584
-2377.8079 219.85919 3633.2747
-2910.4209 202.9384 4348.4858
-2898.6357 72.078835 4299.7988
-2828.2971 -61.706104 4171.2861
-2871.1091 -183.09053 4198.7207
-2899.282 -305.7934 4206.0513
-1987.4945 1066.759 3338.2117
-1968.6509 942.20892 3281.406
-2115.5679 797.20081 3444.8496
-2127.6484 690.86768 3434.6504
-2166.625 597.12103 3464.1704
-2190.0342 496.78751 3470.876
-2251.6982 407.18845 3532.2815
-2326.1428 318.37601 3611.26
-2375.9844 219.8127 3654.3469
-2901.8538 201.31055 4364.6968
-2897.124 71.214684 4325.6929
-2877.4548 -58.222374 4266.5396
-2878.0867 -184.40425 4235.8057
-2903.8796 -307.94604 4239.9399
-1948.501 1046.2737 3298.8777
-2050.2163 992.70898 3424.616
-2097.5327 791.328 3438.9263
-2136.7063 697.17474 3468.9441
-2160.3098 596.64062 3476.0637
-2176.9868 493.85403 3473.1436
-2237.2551 404.00885 3533.0977
-2312.5005 315.61697 3613.9053
-2388.3743 222.84024 3694.4731
-2919.2573 204.24808 4416.0815
-2890.4319 69.700607 4342.9609
-2882.5291 -58.854816 4299.9634
-2873.8813 -186.23843 4256.2393
-2910.2175 -309.96243 4274.9727
-1886.4891 1011.4636 3224.8508
-1962.991 946.13788 3313.8394
-2088.6484 790.02881 3447.7876
-2132.01 697.69061 3484.3801
-2148.9924 594.34863 3481.8936
-2164.4814 491.21149 3477.4001
-2231.1836 403.43457 3547.2747
-2294.8767 311.88528 3612.0603
-2370.3784 219.32372 3692.853
-2917.3215 203.80942 4442.1094
-2916.3713 72.537262 4407.938
-2899.4636 -58.440891 4351.8652
-2870.0151 -188.14642 4278.8428
-1905.1256 1027.3147 3274.3386
-2086.9695 1021.7986 3525.002
-2116.0535 806.29297 3511.366
-2114.2781 692.54681 3480.4307
-2138.752 592.49292 3489.3062
-2147.5571 487.0527 3475.115
-2218.3696 400.84314 3551.6838
-2286.2668 310.49997 3623.1768
-2350.1494 215.33496 3687.8977
-2902.9045 70.09697 4417.6855
-2905.7126 -59.034031 4389.252
-2893.9346 -188.57825 4340.4976
-1866.1495 1006.8649 3234.865
-2029.1768 992.22107 3458.6509
-2065.9495 897.9574 3486.3596
-2108.0144 805.49377 3521.9031
-2103.0425 690.24707 3486.1177
-2125.2261 589.36725 3491.8162
-2140.5498 486.34125 3487.4062
-2201.1162 396.9216 3549.5247
-2273.1409 307.9595 3627.7422
-2332.2251 211.85815 3686.1199
-2876.0913 -62.96479 4376.1152
-2837.6487 -193.25098 4289.8691
-1815.1641 978.70508 3176.0527
-2034.8184 999.50073 3489.7358
-2059.0688 897.84247 3498.3481
-2092.5181 801.09595 3521.1079
-2134.4399 595.18286 3528.4429
-2124.7407 482.5907 3486.6401
-2188.3091 394.35678 3553.8293
-2253.3264 303.69461 3622.4458
-2314.3313 208.3998 3684.2686
-1831.0332 992.69958 3220.4248
-2020.2727 994.82031 3488.3784
-2042.2749 892.24756 3493.7988
-2088.1604 801.95459 3536.043
-2088.5625 689.06073 3508.3562
-2117.0874 590.47034 3523.9912
-2114.9751 480.85571 3493.572
-2167.2917 389.23721 3544.5728
-2244.1484 302.15546 3631.3875
-2306.0332 207.01427 3695.0266
-1856.7798 1013.5821 3283.2388
-2013.8674 995.37152 3502.2219
-2032.7068 890.93304 3502.8936
-2082.5962 802.61151 3551.7839
-2105.3606 699.32733 3558.3306
-2101.845 586.84369 3525.178
-2104.0347 478.9249 3501.2864
-2158.302 387.93024 3555.7378
-2235.9312 300.98349 3644.4458
-2290.8831 204.2034 3698.4238
-2420.2407 116.62038 3860.5847
-1843.9583 1009.4622 3282.9861
-2009.5334 996.72015 3516.8916
-2016.9908 885.92517 3499.8445
-2053.0034 791.17181 3527.7014
-2116.7026 706.95764 3597.8408
-2066.3867 574.97925 3492.7649
-2089.9055 475.69394 3501.5969
-2148.2683 386.17114 3562.7668
-2216.783 296.87387 3638.531
-2276.9792 201.62498 3700.8926
-2420.2969 116.62527 3884.845
-1852.1702 1019.338 3318.7454
-1990.8118 990.07697 3511.3447
-2006.3605 884.07404 3507.2419
-2057.8232 796.96503 3559.6545
-2047.6995 679.35797 3515.6277
-2132.1431 603.46509 3618.4058
-2087.533 476.79871 3522.3833
-2142.4531 385.87048 3578.825
-2211.7927 296.57712 3656.4697
-2273.9702 201.48705 3722.3362
-2396.6868 112.50561 3877.0278
-1917.6045 1065.9337 3445.9688
-1981.7994 988.94244 3519.8911
-2002.4126 885.65857 3523.9719
-2042.3203 792.62622 3558.625
-2067.824 691.09161 3570.2422
-2126.7915 603.729 3633.9819
-2071.7297 473.11044 3521.3726
-2117.7163 379.72406 3564.7607
-2194.2542 292.96375 3654.157
-2267.0876 200.49519 3736.7463
-2395.9363 112.39724 3901.7417
-1914.3435 1068.2024 3461.9773
-1949.1405 973.55066 3489.127
-1980.5934 877.3609 3511.0071
-2061.1008 690.79382 3581.9336
-2110.3596 599.47131 3631.0417
-2062.9224 471.78937 3529.803
-2114.103 379.9729 3581.5947
-2183.8677 291.17908 3661.2898
-2243.271 195.79315 3724.1997
-2369.2781 107.76949 3886.2441
-1854.0712 1033.8101 3386.2864
-1964.2394 986.78693 3536.5305
-1936.9735 857.36847 3464.0583
-2066.417 811.08362 3642.832
-2089.166 593.45105 3621.8411
-2048.1987 468.50235 3530.3394
-2104.4646 378.47382 3590.5593
-2173.927 289.58139 3670.4683
-2238.5178 195.29405 3741.8647
-2365.1091 107.09015 3905.957
-1805.063 1006.5502 3328.0618
-1926.1851 968.36456 3497.8193
-2069.5276 933.61548 3701.333
-2094.728 828.61432 3712.3745
-2079.5439 592.06122 3630.7229
-2094.793 376.98135 3599.4966
-2158.5759 286.57721 3671.3076
-2225.01 192.89699 3746.2229
-2363.0288 106.79048 3929.0095
-1783.321 997.19061 3315.3186
-1916.6222 967.18323 3506.5547
-2226.3044 1023.8993 3982.4519
-2108.8206 839.39282 3761.144
-2057.8667 698.31451 3649.8884
-2062.0095 587.65289 3628.3865
-2069.7136 480.1438 3612.9817
-2090.854 377.35846 3618.7915
-2152.2568 286.02151 3687.4927
-2209.7856 190.17014 3749.2888
-2357.9919 105.99242 3949.198
-1874.9604 1061.5477 3488.5806
-1954.637 994.17169 3591.2766
-2317.6875 1078.3191 4157.0474
-2318.5122 947.67194 4125.6099
-2104.1804 722.03882 3747.5916
-2033.2617 578.45569 3605.2744
-2067.9548 481.42648 3633.0608
-2077.4629 374.66959 3620.626
-2140.7048 283.98676 3692.8342
-2191.5325 186.72693 3744.7717
-2339.0452 102.76524 3945.1021
-1784.4158 1006.9048 3360.0857
-1921.7231 978.79285 3560.4646
-2120.2839 973.95044 3859.1892
-2321.719 953.28223 4158.2983
-2269.793 800.00964 4041.531
-2048.4197 587.099 3653.8892
-2068.6257 483.71823 3658.5579
-2072.9395 374.82397 3637.8413
-2128.5208 281.85861 3698.551
-2187.6606 186.4826 3764.0325
-2327.0129 100.76633 3953.0942
-1740.0492 982.36865 3307.6946
-1917.4222 980.67529 3577.0171
-1905.703 859.42822 3528.8748
-2322.7529 957.86829 4187.7339
-2258.0066 798.06488 4049.3074
-2067.4246 597.37415 3709.2881
-2051.5408 479.70294 3655.7073
-2113.1572 278.90277 3699.1992
-2171.9895 183.66414 3764.8545
-2312.8118 98.401505 3957.6931
-1814.9384 1036.3402 3455.5969
-1873.6035 958.33521 3525.8821
-2248.9023 1053.8467 4124.1714
-2304.3159 952.46124 4183.6318
-2252.9209 798.99457 4066.5969
-2108.2129 616.42474 3799.4663
-2039.2225 477.28296 3659.0825
-2097.3762 275.78436 3697.7046
-2155.9077 180.73151 3763.5217
-2297.1406 95.78492 3958.4426
-1771.0367 1012.3815 3405.0791
-1935.7817 1001.0209 3656.1982
-2313.1052 1094.572 4261.2451
-2247.7515 928.21136 4118.9067
-2229.3245 791.90802 4056.4219
-2327.2981 708.48608 4186.5942
-2021.5835 473.20129 3656.4983
-2085.6123 273.86942 3705.3633
-2145.9639 179.23381 3774.7358
-2290.7651 94.82634 3976.8486
-1828.6685 1055.3982 3525.7156
-1961.6779 1021.3121 3723.5547
-2313.3047 1099.2748 4288.583
-2219.6482 917.83759 4097.918
-2241.1914 800.63861 4102.042
-2328.8477 711.98132 4215.8726
-2034.8463 480.01108 3701.7463
-2085.4797 274.93509 3729.032
-2142.4971 179.10544 3793.5352
-2284.595 93.900558 3992.6943
-1784.4708 1030.9321 3473.0457
-1900.9945 988.87878 3644.5532
-2090.5208 979.19714 3938.189
-2179.1831 901.36218 4057.2295
-2207.2798 788.65283 4072.9436
-2316.4602 709.99194 4223.8301
-2045.2242 485.9606 3744.1316
-2045.6113 374.39282 3716.8467
-2071.1306 272.30124 3731.189
-2129.9412 177.02638 3799.2395
-2278.7275 93.051369 4010.6641
-1740.5791 1006.5262 3420.1365
-1977.7112 1040.9153 3801.6943
-1795.0417 817.40491 3458.5222
-2008.4429 818.22083 3794.364
-2188.4409 783.56006 4068.8022
-2296.0249 704.71881 4218.3037
-2062.469 494.45319 3798.4077
-2034.4868 372.61874 3723.9441
-2073.2922 274.0892 3760.3494
-2120.4929 175.64767 3809.98
-2266.4902 91.099777 4018.4712
-1771.2833 1032.2245 3497.1484
-1781.9462 924.85388 3487.199
-1920.1652 892.16193 3697.9146
-2203.5042 922.16583 4154.1177
-2043.2067 720.13019 3849.7693
-2338.5305 725.35999 4318.7598
-2146.969 527.42499 3965.926
-2076.3289 276.13995 3791.2524
-2115.1396 175.19084 3827.4832
-1747.298 1021.1685 3478.6523
-1791.8645 935.64294 3528.3413
-2071.8196 982.51453 3986.458
-2108.8516 877.75903 4019.3276
-2058.4858 730.64813 3902.2507
-2345.7114 731.56927 4360.4771
-2258.6167 570.48352 4181.3433
-2106.6135 174.04869 3839.8899
-1696.0283 991.26337 3410.1069
-1777.5892 931.21051 3526.0029
-1976.8448 932.96063 3846.2393
-2063.0103 858.05841 3965.8147
-2190.5684 795.31458 4154.8618
-2349.4346 736.23193 4395.0728
-2266.8909 575.94348 4222.5381
-2041.9226 380.19348 3812.5527
-2067.928 166.18538 3800.8115
-1718.2111 1011.77 3474.4355
-1912.4976 1020.5737 3790.7437
-1898.5594 893.1275 3736.3647
-2328.0674 999.79608 4457.4141
-2209.8823 808.2984 4218.4927
-2349.5762 739.83954 4427.2329
-2270.5752 580.07587 4259.5898
-2060.9668 388.17978 3872.76
-2076.1416 168.82986 3842.4841
-1646.1403 967.44373 3367.4023
-1845.2212 983.21552 3695.3176
-1946.125 924.6463 3844.8901
-2138.6448 905.78937 4153.4761
-2265.1047 837.76141 4342.2739
-2333.3735 736.31476 4428.0254
-2269.5354 582.23145 4285.6392
-2083.9624 397.27823 3937.4365
-2063.3413 277.79526 3874.0261
-2077.3047 169.84467 3869.7776
-1749.4374 1043.4639 3577.6506
-1866.2603 1001.5141 3758.6091
-1926.5557 918.07422 3836.5698
-2220.9756 953.17664 4327.8081
-2315.0999 865.21783 4460.0747
-2321.3342 734.73114 4437.6919
-2272.5815 586.08282 4320.665
-2085.0962 399.5896 3966.8389
-2077.7134 283.05188 3925.6267
-2054.4451 165.56966 3858.1462
-1660.7102 987.79718 3440.7119
-1659.2628 875.82916 3410.3535
-1773.0121 834.16217 3587.6519
-2202.7444 948.29187 4325.2979
-2320.3159 871.8197 4500.2085
-2307.3213 732.3429 4443.9224
-2289.1555 594.97968 4379.6318
-2105.8455 408.20432 4030.48
-2071.8643 282.87543 3943.0972
-1689.0657 1012.7186 3516.6541
-1677.0869 891.88336 3466.5664
-1716.9366 806.12299 3511.3652
-2133.5801 916.65082 4231.3374
-2219.3716 828.36725 4351.8511
-2336.699 748.22809 4526.8047
-2283.9729 595.90741 4401.1401
-2118.375 414.25888 4080.5815
-2081.8015 287.00894 3988.0205
-1585.9208 946.54224 3350.6699
-1667.1256 890.39124 3472.5396
-1858.0205 892.55078 3792.5364
-2014.2598 858.36896 4045.4617
-2207.6121 826.91376 4361.1743
-2312.8376 741.77948 4516.0034
-2268.9963 593.23474 4405.5356
-2119.8708 416.8299 4111.9199
-2076.6919 287.08936 4007.2576
-1676.7599 1014.8253 3541.6909
-1695.9987 913.47839 3548.7913
-1773.7988 847.89911 3663.4788
-1974.1915 841.39026 3999.4421
-2178.5686 817.0351 4337.6602
-2298.3879 739.10535 4520.0508
-2257.6313 591.75983 4414.5933
-2141.3643 425.76111 4177.2695
-2083.9478 290.48346 4046.7595
-1660.3969 1008.9476 3535.9365
-1647.6987 887.51196 3484.0693
-1677.7629 796.28064 3512.2937
-1968.144 842.63531 4016.5229
-2113.2388 790.0379 4249.5527
-2081.7468 650.75439 4161.3433
-2247.426 590.90247 4427.4854
-2144.3743 428.92032 4212.2017
-2075.6604 289.75076 4060.8706
-1557.1648 942.29614 3367.6724
-1681.3344 914.46252 3572.9673
-1817.7814 883.38873 3798.439
-1955.8181 840.82806 4023.7607
-1917.771 700.77191 3923.7556
-2039.5015 636.36517 4115.7505
-2236.436 589.94427 4440.7832
-2141.6797 430.40283 4238.9785
-2064.6855 288.38922 4071.9124
-1520.9742 922.13983 3322.8594
-1671.9635 913.54913 3580.6433
-1810.4371 883.93768 3811.6348
-1908.2461 819.92554 3964.0325
-1867.197 680.31531 3858.5103
-2254.8755 731.93188 4538.7891
-2217.575 585.88623 4438.1143
-2147.2173 434.47192 4279.1904
-2070.7808 291.6507 4111.9473
-1608.0591 988.92078 3511.5295
-1664.0289 913.30475 3589.657
-1756.6172 856.69916 3735.9949
-1922.9803 832.11707 4018.1909
-1814.8522 658.67596 3787.4902
-2241.3286 729.70764 4544.3696
-2213.6501 587.29657 4460.8472
-2150.3953 437.69467 4313.8716
-2086.0129 297.37823 4167.2568
-1576.9967 972.50836 3476.8306
-1650.1545 909.50482 3588.8086
-1697.2247 826.2337 3650.1877
-1854.8446 800.00104 3918.781
-1892.1255 699.88013 3958.8669
-2215.8584 722.57751 4529.6406
-2176.9268 576.5083 4425.2212
-2144.1401 438.01288 4333.4175
-2099.2908 302.71085 4221.356
-1503.946 925.6731 3358.928
-1574.1106 864.68878 3467.0183
-1813.4554 900.21783 3896.5305
-1882.1133 819.05743 3996.9377
-1937.9609 725.91827 4071.8423
-2202.3406 720.38324 4535.1025
-2177.6201 579.71039 4456.5464
-2144.1758 440.28827 4362.9697
-2090.1367 301.78998 4233.4292
-1518.0883 941.67041 3412.0315
-1635.6464 910.62 3612.4661
-1821.1451 910.28528 3940.8823
-1867.129 815.85095 3998.748
-2032.856 776.58002 4282.4326
-2165.231 708.4035 4499.8418
-2180.4009 584.11121 4495.6865
-2139.793 441.42444 4388.165
-2117.3801 311.18536 4315.9707
-1577.3401 990.05359 3553.0305
-1558.8134 865.25922 3488.842
-1799.129 902.28473 3926.7458
-1832.1945 801.50543 3960.5779
-2001.292 765.50104 4253.2212
-2036.6051 656.3042 4288.9629
-2177.2378 586.12695 4522.3057
-2136.9434 442.96707 4414.7061
-2129.8042 316.43643 4370.397
-1499.4144 939.55908 3424.6772
-1570.5005 878.28314 3537.1118
-1755.1948 880.99011 3869.636
-1797.491 787.20398 3922.2312
-1991.5383 765.09387 4265.3696
-2177.8613 721.80725 4589.3447
-2168.4209 586.02081 4538.5029
-2133.0288 444.19742 4439.5249
-2099.7874 309.89743 4346.2881
-1561.8556 990.41339 3572.5208
-1548.7697 868.88239 3518.5256
-1713.0845 860.37061 3813.6736
-1833.6747 811.5509 4019.6594
-2019.1836 782.92743 4348.1333
-2156.9434 716.4646 4580.7803
-2157.5342 584.96527 4549.042
-1540.6139 980.95093 3556.0227
-1572.1814 889.94269 3590.8501
-1712.495 865.23077 3840.397
-1730.287 759.30511 3846.3977
-2314.0317 933.57977 4953.7065
-1936.2225 623.37238 4187.791
-2135.8479 579.948 4540.7612
-1537.1998 984.51923 3575.2134
-1590.0686 907.5094 3653.064
-1679.7155 850.44397 3803.4087
-1972.4116 898.29529 4352.6924
-2299.5679 931.60724 4961.6143
-2150.54 721.87524 4635.7065
-2723.2302 810.99493 5709.3135
-2934.2104 719.34821 6073.7832
-1511.8711 971.99884 3550.0405
-1582.1038 907.80884 3663.9214
-1714.3522 877.0495 3900.8342
-1690.3892 746.5415 3823.9675
-2128.1504 851.25543 4659.6929
-2049.5684 681.28467 4471.9692
-2803.5547 846.5174 5907.626
-2926.1611 720.25269 6102.8872
-3117.2007 604.5907 6427.3545
-1382.0553 881.70013 3309.1008
-1572.1395 906.46985 3669.2903
-1695.9719 870.85022 3891.0325
-1744.8795 781.49554 3959.834
-2357.3152 970.90155 5147.665
-2546.7021 906.55835 5484.3335
-2796.0376 847.79846 5934.0415
-2920.7839 721.89807 6134.9712
-3082.6565 597.51007 6405.4209
-1504.8237 979.15735 3588.3374
-1529.8638 883.77606 3611.5549
-1705.3671 882.48431 3940.6604
-1785.2632 809.40881 4072.4087
-2262.1304 928.83087 4997.2891
-2614.2766 942.11414 5661.5962
-2776.6572 844.98352 5942.1733
-2908.7285 721.75488 6159.3511
-3058.8215 593.7854 6409.1733
-1463.7634 954.43323 3528.3469
-1515.851 879.61194 3608.1528
-1657.3148 857.81555 3870.1294
-1759.479 799.70288 4048.7622
-1763.6979 681.91534 4027.3694
-2598.5876 940.03741 5669.9253
-2780.4429 850.79578 5991.4375
-2895.9128 720.97839 6177.3447
-3035.3213 589.85083 6408.1768
